-8.978075184502745998e+00 3.860711232719466146e+00 2.471407679120174450e+00 -3.373365410170173218e-01 -6.403770317844955651e-01 6.900154456659309821e-01
9.743723554912945062e+00 2.649302710026244956e+00 -9.906792608280003964e-01 4.309675550435720370e-01 -8.592914225327825672e-01 2.754727167277236100e-01
-6.005199370498262024e-01 9.941328475182970692e+00 -1.001489682231483158e+00 9.693583065993178760e-01 1.632705737182750805e-01 -1.835407126078791584e-01
-8.406495640741223241e+00 -4.755436523728922005e+00 -6.056413252056845886e-01 6.879171307650607803e-01 -5.704252002755652029e-01 -4.487595259050748409e-01
7.422325625261237292e+00 5.084808807547217313e+00 -2.462089850647962486e+00 6.707843229054104572e-01 -7.415665920688570001e-01 -1.128634890970070005e-02
4.483050399239540518e+00 -7.856324638716969844e+00 1.682114451597341631e+00 8.286011084833496687e-01 5.299545756333902125e-01 1.804670351765038649e-01
7.934401475165651973e+00 -4.353536744363605493e+00 1.063777476021477764e+00 9.663203799634190183e-01 1.907507983023206399e-01 -1.727398512630515248e-01
8.750580267151672587e+00 -5.004335012837215935e+00 -1.721657866082945798e+00 5.036485205822224254e-01 8.187915696726999482e-01 -2.755331797592718290e-01
3.449625809651265307e+00 -8.822971661589365411e+00 1.510774218071320174e-01 9.325403307933955999e-01 3.607096499361644448e-01 -1.603371094519423501e-02
8.250645180182427652e+00 3.001750845484567609e+00 -1.856281430282311184e+00 1.542943410294171369e-01 -3.100344014941711079e-01 9.381214879835387821e-01
2.178107388222835006e+00 -9.820615159932696514e+00 2.174171992749986515e+00 9.681765905761006152e-01 2.328751046615027964e-01 -9.166937923500993735e-02
-7.090448155414240894e+00 -7.906200976552505644e+00 -1.695419879682704467e+00 5.691665387753502836e-01 -3.107271002502395851e-01 -7.612477391155689777e-01
6.536727567793633398e+00 7.456540453453616379e+00 3.235161880238412557e+00 7.709464295036642101e-01 -6.128791247414120402e-01 1.732650607934349551e-01
-3.266186189024690822e+00 8.303135521355297755e+00 -1.539689332051391579e-02 -8.726379382324577216e-01 -4.470908471161896824e-01 1.965014075835922469e-01
3.843286906668940794e+00 -7.945568911163114478e+00 2.370213864995743158e+00 8.925423370349263585e-01 2.349523697770231068e-01 3.849227981509968366e-01
3.075239198664987406e-01 8.166054327856175021e+00 -2.866856353939130297e+00 9.191375935704565459e-01 -1.018519938877060493e-01 -3.805420547411401677e-01
-1.360897450734467107e+00 -1.149633019746394069e+01 1.990045967722652076e+00 8.735178663789516795e-01 1.137354223107410883e-01 -4.733189102799096881e-01
1.693713285332100860e+00 -1.010492030409828601e+01 -1.225522043594736266e+00 9.221677347210380793e-01 1.449280421566240540e-01 -3.586119513291728955e-01
-2.288093797183043954e+00 -8.916079847078009379e+00 2.964865356635455029e+00 9.420951402107748951e-01 -2.100993534743023361e-01 2.613713994700268550e-01
-9.055899409673566325e+00 -1.958750097297188519e+00 -2.065995604993054346e+00 4.281514064184320234e-01 -5.459859244660841826e-01 -7.201289769665110141e-01
2.183102331581830757e+00 -1.050976466667986564e+01 -1.671069904705060116e+00 8.874455966926018124e-01 1.359723657310246414e-01 -4.403996238286546627e-01
8.314507023937411034e+00 7.056934603836488407e+00 2.485646538274524087e+00 7.822379362125879698e-01 -6.203996522521209034e-01 5.663993851796375600e-02
-7.333059568597860789e+00 -6.770232904118172357e+00 5.234936665335786221e-02 7.291610853058339003e-01 -4.145692613168792118e-01 -5.444781347738361088e-01
6.794241914586570452e+00 -5.142120665679298597e+00 1.999536367301016249e+00 2.507625699769975292e-01 9.612151755003084386e-01 -1.148195100426871451e-01
8.164117777298343981e+00 -1.905629934338127551e+00 7.581174390647368311e-01 -2.068397176061473608e-01 -9.739086504009339951e-01 9.337704158325219050e-02
-1.187691873801446363e+00 1.028781561342692363e+01 -6.792933383151862348e-01 -1.141965039962812151e-01 4.652138446617298251e-01 -8.778013654637814023e-01
-7.848357728763069474e+00 -8.138469636230896143e-01 -1.216736959978959476e+00 -4.021006102574291030e-01 5.618940742918202558e-01 -7.229039690763506831e-01
-4.603110667442728676e+00 -8.148545310419255117e+00 7.249196114831296667e-03 -9.198918940844624803e-01 3.811910297865851449e-01 9.215368689283548465e-02
1.002693432987633138e+00 -1.017997671416718219e+01 -3.200760912089118282e+00 9.108582053524661992e-01 1.664957426434459098e-01 -3.776459948466181493e-01
8.685838248877230328e+00 1.998051558190914179e+00 -7.769874233070377390e-01 6.526628746313963836e-01 -6.313060023502894413e-01 4.189079892701716989e-01
2.301200208650874046e+00 9.144676555805091311e+00 -1.755136190792808915e+00 9.521498580230337572e-01 -2.424339014025190808e-01 -1.861087083332492453e-01
-9.353758803994082882e+00 4.449493998273773343e+00 3.222233445917613182e+00 -4.808398065117074349e-01 -7.797655418473954381e-01 -4.009473534283790608e-01
-9.316825866699218750e+00 -5.149059176445007324e+00 3.391681015491485596e+00 -6.311852167457515650e-01 4.555138920971826266e-01 6.277836540306657165e-01
-2.295494062004030944e+00 -1.024505093652627252e+01 -3.477690515556091100e+00 6.473679665389027171e-01 3.363329554742837124e-01 -6.839553047979229916e-01
-6.194430253956733523e+00 -5.315065496914562537e+00 -4.977741636741250808e-01 7.603681986199735121e-01 -6.404832640416819878e-01 1.078025556743898994e-01
-7.471738412773491156e+00 -5.995937114628964615e+00 3.117448295752495824e+00 8.204815101002547184e-01 -5.043201143042841395e-01 -2.692049663206826926e-01
7.649512994795470533e+00 5.319912001599199414e+00 1.445531654320504344e+00 -6.516554735627448913e-01 6.507766712826789091e-01 -3.896599387798942438e-01
-4.821005161491025426e+00 -7.295279145623143613e+00 -5.760151853546184864e-01 -8.291101088730512547e-01 5.236876674602686244e-01 -1.957744986318190050e-01
-1.073112207687279662e+00 1.010566894866460430e+01 -1.179524006198558350e+00 9.591839877124705427e-02 2.757060212645917052e-01 -9.564443792587252746e-01
9.476091762877459246e+00 -2.221916935444910202e+00 1.169044889279988730e+00 -3.151580277426715287e-02 -9.722265099998613769e-01 2.319102572741942869e-01
8.312494692716661859e+00 4.090150999860084902e+00 2.610438021057783331e+00 6.310686554183475572e-01 -7.047232941386821770e-01 3.242181840162633444e-01
-7.012357170845707088e+00 8.071710515955125231e+00 3.436980914421371658e+00 -5.697905510054741551e-01 -6.342181912471778205e-01 -5.225954591039196906e-01
-8.131785254440798028e+00 1.592016084170915668e+00 3.130301751125425191e+00 -1.709812384658819795e-01 -9.823342521204059263e-01 7.605809098127537526e-02
-3.858734050913438463e+00 8.602358580028331758e+00 -3.482180003341173169e+00 9.465368532478771746e-01 6.751864296267517940e-02 3.154508175549484705e-01
1.045934297801785640e+01 -2.999454964420383174e+00 1.662629381398678996e+00 6.892030224102770053e-02 -9.785376338356961412e-01 1.942011614441131739e-01
-7.946731856847406128e+00 -1.224190670682276716e+00 -5.905971517764126988e-01 4.875379485910053545e-01 -6.294732473435145081e-01 6.050373373292633472e-01
6.948222647448213607e+00 -6.125294553649818674e+00 -1.634313758519837956e+00 5.649773237164188444e-01 8.164810963090853857e-01 -1.189926176539830710e-01
-8.626221895217895508e+00 -6.902765512466430664e+00 3.083346009254455566e+00 -7.432107003873188456e-01 6.418265132297206188e-01 1.889353903988618688e-01
-3.591101652697904711e+00 -9.574858557624754241e+00 -3.471044867894852004e+00 9.032293454140688516e-01 -7.640272277429024927e-02 -4.223024668830954176e-01
-9.142860623762439687e+00 6.163940899689995589e+00 5.629859566362478418e-01 3.485408231558054237e-01 5.508062212302888838e-01 7.583744465947436231e-01
4.239163289068065055e+00 -7.240219865447294900e+00 7.697037607626242561e-01 7.964577340422454022e-01 5.348209499901793729e-01 2.821730485639870611e-01
-8.233336027323682416e+00 3.361711924609734226e+00 1.682126946433303516e+00 2.155862707591167382e-01 8.295973954579743959e-01 5.150638031443506293e-01
-9.083493291230134048e+00 3.328633684439260332e+00 3.137846143452557079e+00 -4.667521302700637920e-01 -8.389220546233898679e-01 -2.799146926383599965e-01
-8.549066645711349111e+00 -4.718858807832454261e+00 1.613772185242079660e+00 7.299883205128611108e-01 -6.410779326142381773e-01 -2.369306570072070850e-01
1.900407429743706356e+00 -9.675346301331618548e+00 -1.237029827165486484e+00 9.067879550553819001e-01 1.698962817208640175e-01 -3.858378649431696283e-01
-2.958310135093149551e+00 9.589321052056337891e+00 2.525083093818610180e+00 6.898052539071306555e-01 4.368836309134714324e-01 -5.773226175389117865e-01
3.953247948820674651e+00 7.916776216632429808e+00 5.353534057196153162e-01 -7.302364774025932315e-01 3.490277985975264174e-01 -5.873110614289640541e-01
7.730254293980916458e+00 -1.884200758227032146e+00 -3.523639137700430357e+00 -3.866729810606896467e-01 -9.206061866727611731e-01 -5.448169213117964177e-02
-7.658567601393034607e+00 5.677882967163936812e+00 -2.189877970388118378e+00 7.230106228433517135e-01 6.356483357391515820e-01 2.705676117492915034e-01
3.901810286629167290e+00 9.002689479286274832e+00 -3.024480535726663533e-01 -9.185437461992452812e-01 3.875383124525292877e-01 -7.804769503132322206e-02
5.291012699374387118e+00 6.750680038807395533e+00 -3.337468004278381528e+00 -4.333400907193130647e-01 -2.820829508885502879e-01 8.559471797917118652e-01
6.133436350194680031e+00 6.275647054323782115e+00 -2.637334075017447432e+00 7.195506156822295551e-01 -6.871496440732999256e-01 1.003607399397870026e-01
-5.204587383681138490e+00 -9.402714054879012906e+00 2.181485463105968137e+00 -7.558446977611374962e-01 6.061059665749668479e-01 2.476577278192616527e-01
-9.194793425464194314e+00 -1.398956143944015018e+00 3.251279567934314496e+00 1.470423453599414010e-01 8.853471717118266415e-01 -4.410656801576348651e-01
-8.983466187756560473e+00 3.514822741392896077e+00 -2.298565194135542722e+00 2.033645049173213870e-01 6.003582920657732913e-01 7.734421757879513804e-01
-7.459379868154474735e+00 4.579385008957234326e+00 1.840567275174879835e+00 8.889662646893639053e-01 -4.365159825009796157e-01 1.385379993555721501e-01
1.731520798755196378e+00 7.907394173854137343e+00 -2.033319434775059165e+00 8.546696481073560170e-01 -8.349379123125898194e-02 -5.124144605979414901e-01
7.781790758628509330e+00 -5.767520058494335800e+00 -3.004901100988317975e+00 5.404631065487088826e-01 7.417750605006423470e-01 -3.970760507497113068e-01
-4.715026207099805688e+00 7.850702770680786813e+00 -1.866438834383318479e+00 9.316145638470476609e-01 3.209215390765048359e-01 1.705979782554379043e-01
7.951846221865306319e+00 -2.193943456614050991e+00 -1.555576398168480479e+00 -4.554658534333201336e-01 -8.778272883669658855e-01 -1.482231701002147406e-01
-7.774847430109941726e+00 3.284157340440756467e+00 3.348772782921798807e+00 -5.629408813943540535e-01 -8.227344783109939996e-01 7.877526422224503944e-02
-8.226565993724936021e+00 5.512210693323619459e+00 -2.276991728304499141e+00 5.765526117650306981e-01 6.016790352221886851e-01 5.527833431291306887e-01
6.586683760099805163e+00 -7.227654049491658128e+00 -2.886506272870992262e+00 6.932863467993383155e-01 6.963881315176790876e-01 -1.854659311651151166e-01
6.579723806458289914e+00 -5.621059040797360851e+00 -3.085950081010855328e+00 6.771403981356497459e-01 6.940297440790318406e-01 -2.445477367433350480e-01
1.504074437382515450e+00 8.197461279009660373e+00 -1.890072381866404250e+00 8.518168030902892873e-01 -1.214785643630641870e-01 -5.095597044246416019e-01
-6.438173181552653723e+00 -6.309369415656922442e+00 7.938262234521547001e-01 8.383306100740880451e-01 -5.451530307945503528e-01 -3.156141366201222452e-03
8.771253440283647507e+00 3.937675323625150714e+00 -2.366447358197958817e+00 -5.592838176856381738e-01 8.240067382857459988e-01 -9.063391492517525183e-02
8.648241913303580830e+00 2.913756566412962989e+00 1.383570162071103393e+00 -7.062864561583682699e-01 7.051810121294334044e-01 6.228307939851224911e-02
1.024350003700758238e+00 1.063958377359372420e+01 -1.718703785852800092e-01 9.702588284519512163e-01 -1.588859383145684381e-02 2.415478387340823097e-01
-1.054234712376625360e+01 3.789439050079444371e+00 3.206861844208676260e+00 -5.947297388941124030e-01 -7.996001398321157527e-01 -8.328357614441156409e-02
6.684625175519860463e+00 -4.703106011532588226e+00 -2.654204202353577013e+00 -7.253763552408482029e-01 -6.409707092542752394e-01 -2.509695063858841113e-01
-8.796868019090890556e+00 2.068433772525486436e-01 -3.741857724214111003e-01 3.017470033070435154e-01 -8.937437148073499316e-01 -3.319200479597118059e-01
-9.043213938467530966e+00 -4.526782310456526348e-01 -1.049826213458495472e+00 2.675060568981491582e-01 -8.434407964939228952e-01 -4.658842477831817708e-01
-1.257595481936764070e+00 1.035604154865051285e+01 3.207321693190603895e+00 9.329301927675285322e-01 3.985838415147090197e-02 3.578443301710616531e-01
-6.613562355781856361e+00 5.709447463336753792e+00 2.005117154077019404e+00 -6.410353534915923523e-01 -7.628325852413520014e-01 -8.461750686415304978e-02
8.934391095788322801e+00 6.399521369344660093e-02 -2.466494399498857515e+00 1.847229443487969081e-01 9.603328000983610835e-01 -2.088979341361526798e-01
-3.161192173030673569e-01 9.658360733274690801e+00 -2.145815326699292314e+00 9.860918273346168661e-01 -1.212067764893519362e-01 1.137181841085058015e-01
7.708701897868541764e-01 -9.936554921183173406e+00 -3.509094130186805049e+00 9.427441196973581627e-01 1.500997571474659287e-01 -2.978314753015957606e-01
-1.017351862228800563e+01 4.588458410395419851e-02 -7.668829595123347609e-01 -1.655921188017924206e-01 3.655252082395918367e-01 9.159533679899517500e-01
-7.656615748416560230e+00 -7.147955508412857206e+00 -2.003753395803615334e+00 6.718306408144658626e-01 -2.615430128789537068e-01 -6.929926713010923223e-01
-6.800748815660499602e+00 -7.768416374829127946e+00 -1.020369653691970635e+00 8.005261123112854538e-01 -4.074634187092539550e-01 -4.394672978977463007e-01
-9.128526306263188062e+00 7.210927825735446994e-01 3.266456832958984702e+00 -2.221316633583254319e-01 -9.602722859728265448e-01 1.689220557718438265e-01
6.192886109600213906e+00 5.508990503744506384e+00 -1.616174299283933857e+00 6.053393369323910589e-01 -7.631441174747206624e-01 -2.262196789096453386e-01
7.139390238300563629e-01 -9.416762589083539581e+00 3.459360870976194491e+00 9.543836892909529634e-01 3.689025049825429836e-02 2.962952632654892726e-01
-3.134546044560805544e+00 -1.039549271722261103e+01 -1.452116066749767231e+00 7.303951940005225518e-01 -6.106082115446293673e-02 -6.802899651625635702e-01
2.297373999684750867e+00 -8.474310738746956062e+00 2.844430699088214887e+00 8.663879869742064921e-01 7.548783338302758605e-02 4.936329031151777680e-01
-9.333128164539072458e+00 -4.138649925616198821e+00 2.988592287147816773e+00 -5.058056987141392735e-01 4.673043234420388159e-01 7.251118978755486388e-01
-6.244998377837126746e+00 7.356752904917591707e+00 -1.401068907069845881e+00 4.568749869055763746e-01 6.845592866558467549e-01 5.680174551836129071e-01
-9.594517804927566118e+00 1.266099177581306634e+00 -2.890893136558108090e-01 -1.228498003869074595e-01 8.376403814083906996e-01 5.322278816248757760e-01
-6.433913735646364707e+00 6.363360304109367149e+00 -3.542496304111586891e+00 8.831403191560575072e-01 4.690687634511691573e-01 -6.137738616787487625e-03
6.566130180954657947e-01 -1.095936144380793387e+01 1.982698692548297281e-01 8.350781133474627360e-01 2.429432411887575693e-01 -4.935819346053333945e-01
1.033377671722231206e+01 7.781760865465905397e-01 3.050066957456554206e+00 3.020424391358117466e-01 -9.240805658207897899e-01 2.341911032324204001e-01
3.137340246380900588e+00 8.672411818004420070e+00 3.262161855254993803e+00 -9.284057702196419903e-01 3.623738945151869784e-01 -8.214551963905125653e-02
-9.676044771744114925e+00 -1.243839070293795146e+00 1.728075133746048486e+00 3.366162297070371956e-01 -7.520906556474831195e-01 -5.666120009191105700e-01
8.199260858639858540e+00 -4.766106930460590085e+00 3.174576193480487696e+00 -5.560853654114710221e-01 7.902073082719019981e-01 -2.575683915562353432e-01
8.261250956853960048e+00 1.567659451060606113e+00 -1.942501342996922009e+00 3.035570250048672536e-01 -8.738065505261450872e-01 3.798884636676845283e-01
-7.916822675938192333e+00 -2.458149620205475117e+00 -1.033361586280017841e+00 5.601177190702378850e-01 -7.966271506119977364e-01 -2.272736757553840969e-01
-9.071209780820943536e+00 -2.063922112426773481e+00 -1.213646643396998570e+00 5.039853330344445936e-01 -7.550958838135403139e-01 -4.193196755865488123e-01
2.902795554487227037e+00 9.467990311892078736e+00 -2.766633546681112499e+00 -9.112981384534294405e-01 4.116503105919921968e-01 -8.928865595947866815e-03
-3.829484868674772002e+00 -7.880400034891156480e+00 -4.635904487416554476e-01 -9.504375915312478496e-01 2.834883906642868268e-01 1.276820933524105695e-01
-6.720803916659891186e+00 6.294702712783931453e+00 2.360160887315831069e+00 -6.603497078476733284e-01 -7.270119914601052002e-01 -1.881271581104245194e-01
7.905439993603399884e+00 6.270392161626343608e+00 -1.456157047382823810e+00 6.519496598305578594e-01 -7.222287464796528500e-01 2.309702985347876214e-01
-5.813579361099373344e+00 -6.511958246098716430e+00 -3.340871555013077199e+00 -8.506622089581317159e-01 4.787447404063825962e-01 2.172033143939042232e-01
-3.728747367491168863e+00 9.336658968802161951e+00 -1.668770236641154092e+00 9.417483730005667963e-01 2.389925029333526130e-01 2.366275247988631480e-01
6.498325317281928193e+00 5.699853891148801921e+00 -3.044749440882122737e+00 6.898505263694058032e-01 -7.172000256292585529e-01 9.864266067602106558e-02
-6.770596843395036757e+00 -4.142256615850646639e+00 -3.199639647201078851e+00 -3.991407393396229075e-01 9.152955982534390911e-01 -5.404292754189048142e-02
-4.847317152732940393e+00 -8.441744630504501856e+00 -3.241599358515184104e+00 -8.888585122871582866e-01 3.709914586192958330e-01 2.688789370073210172e-01
-2.807890858388787381e-01 1.121021224831250507e+01 2.012197551012746999e+00 9.580681214657383871e-01 1.609508554689770554e-01 2.370660177142972225e-01
-3.568585326808602076e+00 -9.766882537448056567e+00 2.656669064896939325e+00 -8.466301708677826943e-01 2.875081297627789523e-01 4.478352700454686919e-01
5.903592693787801160e+00 8.105897078027421543e+00 -1.171509230504715615e-01 -8.596162378220544298e-01 4.864054008040044619e-01 -1.564279698179102951e-01
-1.093936657390047529e+01 2.564126637166186828e+00 3.524233240504613285e+00 -4.396934776924518729e-01 -8.482899935657224333e-01 2.950825858822982428e-01
-7.918964169913788709e+00 -1.357873151169515458e+00 6.155161044343967491e-01 4.816729002700668172e-01 -8.035741736105301847e-01 3.496566382203770140e-01
1.364383688446176635e+00 -9.155898277423947462e+00 2.433081106100585700e+00 9.491947844137283985e-01 8.548225752398751209e-02 3.028564757279892383e-01
2.094071659109248529e+00 -8.787693713368721404e+00 2.906444831224516800e+00 8.292387101619824730e-01 5.407485327935671743e-02 5.562724798259460757e-01
-7.510675959046183792e+00 3.424106007342206492e+00 3.545848518610000610e+00 -5.583668979899939488e-01 -8.284822131524799405e-01 -4.293750946434134880e-02
-5.818806057614639649e+00 7.248710242138612259e+00 -3.396177384846617020e+00 -8.247747632876444301e-01 -5.087604191530563646e-01 -2.467983503733697515e-01
2.207994040419699044e-01 -1.087284939007678375e+01 -1.659416874525564634e+00 9.068736408618899292e-01 2.677076711309728796e-01 -3.254424716098540116e-01
5.251587932202003373e+00 -8.355590649047300644e+00 -1.248274651396522605e+00 8.228603230043533001e-01 5.634408072722137950e-01 7.372479586684223263e-02
8.883052131072645352e+00 2.930048588661824382e+00 -3.213152883276894300e+00 3.293774999783384838e-01 -9.043328868210016580e-01 -2.714636114141508738e-01
7.299531515252015268e+00 -5.986225264316344052e+00 -3.339018402909824434e+00 6.043457532090582562e-01 6.723861721276789272e-01 -4.273909756998424125e-01
5.278683791571057604e+00 -6.274479696845784105e+00 -2.886506272870992262e+00 -7.677889672704140134e-01 -6.212116666742414361e-01 -1.568316515427992663e-01
1.766235113755509234e+00 7.961832302808040218e+00 -2.906780874846912610e+00 1.605881318016154080e-01 8.409059908230823721e-01 -5.168061208251282235e-01
7.334417130240303173e+00 -6.882965467466746645e+00 1.200022915690369896e+00 -7.529059285127690515e-01 -6.501000042558190417e-01 1.024824242341535047e-01
9.983809242407644113e-01 8.608122547041050510e+00 -3.483522790134503833e+00 9.467491139263392030e-01 -2.003340121116234385e-01 -2.520563406680169649e-01
1.759714924096931643e+00 1.087531181189629237e+01 6.081547588816601513e-01 9.449476097690998611e-01 -6.250052613794454537e-02 3.211972898767127549e-01
-9.155896571308113963e+00 -1.869288485957809165e+00 -3.141383085918647566e+00 -3.002186446758238758e-01 6.517114498285098145e-01 6.965206038240600028e-01
-5.245295964293397617e+00 -6.646816022356562215e+00 -4.527146789976332908e-01 -8.715178065927867701e-01 3.643493946126105110e-01 -3.281862755160890321e-01
8.529309806706306674e+00 -1.373244544546706969e+00 1.607511090228159190e-01 1.699607283008329195e-01 -8.083638498439251752e-01 5.636144401103988510e-01
-4.590041703026546571e+00 -8.288339927158260068e+00 -2.444354810523709176e+00 -9.025364795650595573e-01 3.967605374558386133e-01 1.673588329669604413e-01
-8.365803122520446777e+00 -7.394202709197998047e+00 3.391681015491485596e+00 5.051461434439008524e-01 -5.438471515916552118e-02 -8.613185685452335871e-01
-6.817029318758272005e+00 -6.850983981653853583e+00 3.480969939270569746e+00 8.732017036339859706e-01 -4.047115946436899425e-01 -2.715277332643318831e-01
8.382866111103464135e+00 2.500406126662994666e+00 2.146732259078298455e+00 3.348867885198824057e-01 -9.163111929073298745e-01 2.196010852149546388e-01
-7.813063212910134503e+00 3.558073062021931854e+00 1.561437826756122638e+00 1.460092784684613454e-01 9.892483744256774791e-01 8.303270275870163267e-03
7.144631489013409720e+00 -3.453343641112459839e+00 -3.194582642143854123e+00 -4.745125088305244265e-01 -8.769496097232456489e-01 7.613974631957100281e-02
-8.525975678607217390e+00 6.051653337343845251e-01 2.081532690069236580e+00 -6.537172193801044084e-02 -9.185726376010673322e-01 3.898087318435510262e-01
-3.962797964794504413e+00 9.924236779709849188e+00 -4.956885942941926526e-01 -8.465930176235265670e-01 -5.222761451890750584e-01 -1.025080029926019876e-01
5.523972389778481151e+00 8.055446018783703366e+00 -1.591962078411918613e+00 -8.388318985724531052e-01 5.368014696384324491e-01 -9.058271430771441812e-02
-9.873137101926399595e+00 3.747957722250702339e+00 7.170190096284876358e-01 1.633179254471733566e-01 6.850348268220697312e-01 7.099679860870408143e-01
-3.351565081068408336e-01 1.057927434563523406e+01 3.710493425618716090e-02 9.717520693419707811e-01 1.763066375016159870e-01 1.568881298966609827e-01
6.813701289182274579e+00 -6.091208027201739483e+00 -3.525925825689382176e-01 6.274689297816730127e-01 6.568766148087945567e-01 4.180859422128189173e-01
-7.307755253037012899e+00 -5.163942132827018305e+00 -4.701888165063228819e-01 8.177383045289448038e-01 -5.705005717984239499e-01 -7.637514572030561222e-02
-9.433359662806354962e+00 -1.976382877652588022e+00 1.350603108729036439e+00 4.051852326936854487e-01 -7.618664258805591949e-01 -5.053557918169599983e-01
-5.102590184789052685e+00 9.697493834931243839e+00 2.653899098977575477e+00 -9.024519441504070816e-01 -1.991700742344489905e-01 -3.819839918486045982e-01
-6.111328938258631993e+00 -5.474681707900322714e+00 -6.364027697608621859e-01 8.110652585013340410e-01 -5.779530989770633731e-01 -9.024057754122058461e-02
1.171317760257414520e+00 9.706127033424564843e+00 -2.014133071719741874e+00 -9.850227981865503635e-01 1.723059903913694568e-01 -6.382219675614464287e-03
2.585316630109114833e+00 8.844911625892441620e+00 -2.898407113998575646e+00 -9.032600917819931796e-01 4.262012560978939435e-01 4.973626337555739352e-02
-7.409143125329802793e+00 -1.764863488647749001e+00 4.208293481092292287e-01 -7.288650838455387193e-01 3.762750686462819627e-01 -5.719901767216563071e-01
-3.718051024432647456e+00 -9.000846845125224149e+00 -1.374577024520046820e+00 -8.702364590383757648e-01 1.152033166065240255e-01 4.789746352399117946e-01
-8.922790415348726967e+00 4.329171905842482460e+00 1.463897169092190031e+00 3.347334783012856918e-01 7.021264826177093799e-01 6.284678996664875283e-01
8.992767586333069829e+00 3.130451209091001274e+00 -2.377217170081205477e+00 -3.366130758769646514e-01 8.562878550093417918e-01 -3.917432150173748018e-01
-1.023233670169189580e+01 -4.650717613976977638e-02 3.165592925909026079e+00 -5.276190307698241932e-02 -9.905240368905122716e-01 1.268002915052568180e-01
2.886469832721991757e+00 8.446478372991773398e+00 9.726701352930822164e-01 8.297637092897643951e-01 -1.093615688989208606e-01 -5.472953809357958832e-01
-7.966117659906125859e+00 2.825267906027827625e+00 -2.816536471334841085e+00 3.234290508348111604e-01 5.499111485500250973e-01 7.700593339324479647e-01
-7.556367028490768689e+00 7.977095344016625234e+00 2.868080152510922076e+00 8.438248715079531559e-01 4.814400843613198533e-01 2.370127241199330159e-01
-9.295781016940591002e+00 -1.243616203532043496e+00 -2.817333455454123392e+00 -1.454094747279146005e-01 6.379323977177585592e-01 7.562396052848749939e-01
-6.610929186608036190e+00 9.170639325121079821e+00 2.820310901947311599e+00 8.228434848745597163e-01 4.069565024979875933e-01 3.966295557243503245e-01
-5.193217902473719505e+00 -6.994827164589154656e+00 -2.241678907984432811e+00 -8.684528125657657860e-01 4.777633354040390357e-01 1.324081103642017199e-01
1.663329638449929870e+00 8.728278996718820792e+00 -2.616308178967938769e+00 9.500821845792921660e-01 -1.207441623205552095e-01 -2.876885291605264516e-01
9.025407389949187120e+00 -2.884716277382255001e+00 3.194148870801488460e+00 7.352249370672379047e-01 -5.874695690162478057e-01 3.381180228771308305e-01
-9.715948745452983815e+00 1.418167369522044918e+00 2.154965549148527837e-01 -7.699738544456476153e-02 9.018826992741475479e-01 4.250635239404563781e-01
-9.190126978100233046e+00 -2.933829733274499585e+00 -5.405222058679807207e-01 5.553717728998710523e-01 -6.834980339838486740e-01 -4.737009936724512205e-01
-3.797105154821548645e+00 -8.887977689849734020e+00 -3.282358609713259767e+00 -8.847111014132145179e-01 3.802921921386288595e-01 2.695628231685759935e-01
-5.651977306050613770e+00 6.933270898686158645e+00 -3.396177384846617020e+00 -8.284096011326931297e-01 -4.777799693659905422e-01 -2.923419806045745584e-01
-1.182345493650682533e+00 9.642939859919952283e+00 -1.325604113227814018e+00 9.726597096358154948e-01 2.304449478834626197e-01 -2.877872905739928613e-02
5.193830864935295111e+00 -8.512305775010744924e+00 -2.887972011751060553e+00 -8.266125606059016029e-01 -5.559863318276440092e-01 8.712561890394480979e-02
6.651113916933565129e+00 5.342240671861710588e+00 2.010061099033573662e+00 1.419190116246658862e-01 2.112679775342289623e-01 9.670702331310143673e-01
-4.950692201859704156e+00 -9.537760475903462876e+00 3.126486512111322558e+00 -8.343127818178158739e-01 1.943633752360388600e-01 5.158924892477815272e-01
-4.102872053872074432e+00 -7.917424559684324237e+00 -3.069444207922019441e+00 -9.116165656515765603e-01 4.086614960965528343e-01 4.417033889106796590e-02
8.346253946890605846e+00 -3.055968725107742756e+00 2.793064986175762598e+00 -1.220865975793492264e-01 -9.879750906970786728e-01 9.486876648084463515e-02
8.346798402453112331e+00 5.150397737772677509e+00 1.664177467598865423e+00 5.687103703206149996e-01 -7.947835899773277868e-01 2.118668444862010503e-01
-8.177510290895073197e+00 -5.035640117002756710e+00 1.179158890183898967e+00 7.371287398394731349e-01 -6.256044311852211326e-01 -2.554609883799993653e-01
-2.596863525646090132e+00 8.205859703607465860e+00 -3.050166537784285037e+00 9.819011339058220100e-01 1.889468052284031252e-01 1.301030470207409882e-02
6.948167785394327112e+00 -6.203773192543317272e+00 -3.517522189379489905e+00 6.175586511375431575e-01 7.012791652210602633e-01 -3.561303761714676441e-01
5.873653419274029730e-01 1.112070673955480871e+01 1.621944746281709371e+00 9.679677370324459851e-01 -2.094692842234291696e-01 -1.384235494098082497e-01
-6.466261449542662909e+00 -6.611762063499611486e+00 3.284286557476172153e+00 8.394711598410379283e-01 -5.403851773498592470e-01 -5.720167738540287566e-02
-9.018800532161263206e+00 -4.713122704835411625e+00 -1.861211492835409764e+00 3.138384771318693534e-01 -3.215890689340840658e-01 -8.933565251419267605e-01
-8.292426715994515973e+00 -3.653179635002371306e+00 3.561483738115112541e+00 6.584319361775009538e-01 -7.497955023783546835e-01 -6.537652510448994925e-02
-2.693741875746145986e+00 -8.322445832506208063e+00 -3.321683886436810340e+00 9.671793326421940229e-01 -1.911905056872187370e-01 1.673628663857839871e-01
8.760540455645983826e+00 2.924109841023600609e+00 1.121920997272774390e+00 -6.702536956589541517e-02 7.159510224808584011e-01 6.949257033979736597e-01
-5.288520757848639064e+00 -6.728103025214554833e+00 2.573547019934575797e+00 -8.312981722940200324e-01 5.495346515173066271e-01 -8.339673568176408924e-02
-6.053273977839913833e+00 9.040165572257706117e+00 2.756065223358476590e+00 6.357292619690178004e-01 7.040417026206853279e-01 3.165021112841027162e-01
-2.364167521519297210e+00 -8.708796419835925562e+00 1.831217355028240235e+00 9.395035390180550561e-01 -1.235857760451353066e-01 3.194677700987557101e-01
-2.252093396650653556e+00 1.023588784235078286e+01 3.112868053990105022e+00 -9.125901604471673423e-01 -1.925171662805732764e-01 -3.607164256619202480e-01
7.159142949216273699e+00 -2.763791947729862031e+00 -2.927480528006051408e+00 -3.462671527175448793e-01 -9.041321006175601083e-01 2.502882409977795763e-01
5.693726281932645961e+00 -8.919362981282349168e+00 6.239066681958371774e-01 -5.710790494723915200e-01 2.531145450543532127e-01 -7.808980383735367736e-01
-2.651319886808563009e+00 1.105029666774533403e+01 1.851958341115761186e+00 8.135151470919584904e-01 3.912082050590930948e-01 4.302897230313450505e-01
8.232635305306322593e+00 1.817117920123122232e+00 -3.344732357178690219e+00 3.367416356448813541e-01 -8.842059532174868508e-01 3.237049630728038863e-01
8.382793728312044834e+00 -5.118148509055314932e+00 -1.998620827051601712e+00 4.592067503226594516e-01 8.010630534268774472e-01 -3.839624264072076243e-01
3.547008433792004922e+00 9.351099218358777776e+00 -3.079581283169289474e+00 -8.886355228364143377e-01 4.566007796587933099e-01 -4.292593118657755252e-02
8.119552941857486772e+00 -3.750997873031788554e+00 -8.886819480861274378e-02 -4.653586727127148048e-01 -8.822652927142760060e-01 -7.105813818876252630e-02
6.510183112052343013e+00 6.400680965951097257e+00 -2.227628451078048855e+00 7.510743028781804442e-01 -6.509269163005404479e-01 1.103700194415338370e-01
9.582587607876064117e-01 -9.125415800677167510e+00 3.459360870976194491e+00 9.245423087836163178e-01 3.212405263105833769e-02 3.797230102477558433e-01
-3.988199869303488576e+00 9.528695482790634941e+00 3.270385329428084020e+00 -4.194905331472817966e-01 -8.603057576891574021e-01 -2.896578945699460617e-01
6.093405231458664417e+00 6.386418102850855760e+00 3.105544506255157877e+00 -8.913237354807147517e-01 4.469156194174946362e-01 7.621304146523695533e-02
-7.815677170361691850e+00 2.927066665118010835e+00 3.313864927801306592e+00 -1.931249282551417146e-01 2.748766425830944660e-01 9.418840658216339756e-01
-3.944661360530952177e-01 9.412774897577463662e+00 -3.279722311872489193e+00 9.624913872712284046e-01 -2.265675039416303604e-01 1.492564758607333175e-01
8.709083591661110901e+00 -3.097378779688619854e+00 -2.368882386068027479e+00 7.364697556290468183e-01 6.751036846486241361e-01 -4.298039108179030343e-02
6.756168327536101081e+00 -4.767378139642945989e+00 -3.374038222113560970e+00 -5.963028520282107614e-01 -8.022618791482856171e-01 -2.826280114361136644e-02
7.029712347169602360e+00 6.543480925974854756e+00 2.238360262812849832e+00 7.575769408762871304e-01 -6.355083552715059536e-01 -1.490178144807934035e-01
-3.707535855947037717e+00 8.432272457868014826e+00 -2.436175383468880407e-02 -8.591258484140690266e-01 -4.486253943555299495e-01 2.462479078614710493e-01
1.177374978279687179e+00 -9.572872764016249647e+00 -4.879855344607046952e-01 9.896659572169235197e-01 1.433862749338464249e-01 -1.292008709750355798e-03
1.130099863863300858e-01 -1.106384337061420275e+01 -2.660668902494123245e-02 8.738053931216587245e-01 2.110346816430623273e-01 -4.380964483938609155e-01
-5.458316858078678280e+00 7.830372978189621413e+00 2.820310901947311599e+00 -8.409231636331085946e-01 -5.364844773450151427e-01 -7.094109128798181674e-02
-5.198764834814306290e+00 -6.569711737829290854e+00 2.921766414706266524e+00 -8.387031271880681649e-01 5.318190549863599514e-01 -1.172414482952586490e-01
-7.851656198159976618e+00 2.361667187686632197e+00 -1.273196422166826824e+00 2.542099166588071210e-02 -9.410701464674469108e-01 3.372547295598106176e-01
6.474793070953421825e+00 -6.639359595054689756e+00 -3.320687936623345937e+00 7.915029336820453842e-01 5.510097427966971217e-01 -2.644075818047458282e-01
7.880324270968254829e+00 -4.731474032273602859e+00 -3.582025630778461256e+00 3.374999635072935544e-01 8.486222296463545867e-01 -4.073500779214672129e-01
9.531872207533644836e-01 -1.104984482798954737e+01 -6.634134603895402993e-01 8.384628377574566693e-01 2.397261404697400011e-01 -4.893990675054411543e-01
4.877447529110869873e+00 8.396759972933093508e+00 4.371447225564001338e-01 -8.910078416769311449e-01 4.422488429818496880e-01 -1.025718623767349763e-01
5.906899302499368787e-02 -8.550864934921264648e+00 -3.391673743724822998e+00 8.414066829220213650e-01 -3.169005673902486331e-01 4.377314522877004399e-01
1.445843458175659180e+00 -1.028624749183654785e+01 -3.391673743724822998e+00 8.734347325820472907e-01 2.194322439051027696e-01 -4.346967428611573370e-01
3.647030962960969624e+00 8.633315901183475916e+00 6.281393431434706409e-01 1.815278214266562440e-01 6.725280430629396733e-01 7.174633658536334613e-01
2.874176926842316515e+00 -7.837835764427605767e+00 -1.691738940661074775e+00 9.235622974700914423e-01 3.689537855883595063e-01 -1.044307751181853955e-01
-5.750708554284640783e+00 -5.964786785836762029e+00 -2.384631583526483745e+00 -8.521892511287517680e-01 5.094299423494044188e-01 1.193926886308348256e-01
-3.854969361179478415e+00 9.907717222746262209e+00 -1.207668725024584194e-01 -8.365201176788070736e-01 -5.450629792573584709e-01 -5.603964098499381735e-02
7.287738222643042718e+00 5.474112239387887158e+00 2.765199801450345163e+00 6.012968158168570110e-01 -6.048345039434280812e-01 5.221277258755908646e-01
9.253071773458104943e+00 -2.754077089130879674e+00 -1.722595434420137517e+00 -2.019688878411871058e-01 -9.483835281228937264e-01 2.444938688993380793e-01
-8.149725007960483936e+00 1.594140490003221000e+00 2.478289053777394724e+00 9.591245833552626276e-01 1.264875252391099714e-01 -2.531421331238227768e-01
5.850357287008810303e+00 -7.958215809199005619e+00 3.486496414019652157e+00 -6.414202183079178443e-01 1.590794522299934788e-01 7.505157103112686245e-01
4.024572270132051877e+00 -8.779465659903321395e+00 2.226918887315689766e+00 9.150180508067571328e-01 3.817752997802638104e-01 -1.303441106283387552e-01
6.232729325704968737e+00 -6.873170087432637132e+00 -3.503172709066365798e+00 6.635275961669028222e-01 5.454761515190743593e-01 -5.120418901309848891e-01
3.268317515061887946e+00 -8.415280417612663655e+00 2.435103355022784299e+00 9.556303718231895505e-01 2.692647642143876086e-01 1.194448793445853502e-01
-7.757068541219742208e+00 -1.818088219748037027e+00 -1.820004360456724257e-02 5.404154801038333344e-01 -6.863557087102055698e-01 4.866897882481767690e-01
-5.773762018370908855e+00 -5.928905912875121587e+00 -2.157118323154626205e-01 -8.395837957827438913e-01 4.811163408669765773e-01 -2.522421780944077430e-01
7.809713023356566808e+00 -5.236525285623958581e+00 -3.582025630778461256e+00 4.633598675420853019e-01 8.080604503788647586e-01 -3.637800732377840518e-01
6.266810397494232410e-01 -1.119108454699361843e+01 3.991779444399752297e-01 8.316413301511152989e-01 2.391236743670329679e-01 -5.011911475093039359e-01
1.641374016729174379e+00 -8.604521825351943320e+00 1.995051873823966204e+00 8.912538536635716824e-01 5.999153015867376287e-02 4.495192817211000613e-01
8.877072806972002184e+00 -2.413222896058374811e+00 2.454967367064899153e-01 -4.361462070074604430e-02 -9.636406113809687923e-01 2.636181650767691620e-01
3.431562679759081025e+00 9.263840936899775613e+00 1.652687839135050352e+00 8.639359337886278745e-01 -1.825493634012001487e-01 4.693510756678718199e-01
-4.975234935681758230e+00 -8.577923874917587455e+00 1.779974047222479427e+00 -9.484794174261735877e-01 2.288078461746849424e-01 2.191660654567855471e-01
-9.899219966223525569e-02 9.646494183873347339e+00 -2.511343704738351335e+00 9.794295966966717337e-01 -1.752469599915847942e-01 1.000308358872541159e-01
8.429287584536869105e+00 5.574455058820573683e+00 -9.759878285028653622e-01 6.190998135695069404e-01 -7.742274329787194320e-01 1.314811882414518573e-01
2.668695900561225187e+00 9.624111094567144420e+00 1.444054863203616090e+00 9.420673589964386752e-01 -1.751985787352058621e-01 2.860324266978113705e-01
9.576371663298754555e+00 3.440131846064705901e+00 -1.939071296310536985e+00 -3.911257997358287275e-01 8.852098678337669835e-01 -2.518414157177749635e-01
2.008241264542637960e+00 1.069397533067530048e+01 1.533690863588212050e+00 8.933186592974962092e-01 -5.289529302751667938e-02 4.463001914927408609e-01
-6.124575357767290118e-01 8.212387354570308773e+00 -2.707259774420332832e+00 5.358409357669998707e-01 1.309843573464910260e-01 8.340968706852177617e-01
6.840916325534481146e+00 -4.138945710356493279e+00 -6.157533111167952100e-01 3.659934499718878187e-01 8.879492202742828022e-01 -2.785587492647977892e-01
-4.009341013954800026e+00 -7.877799281867992498e+00 -1.669428945393840014e+00 9.679120330542063666e-01 1.155999186310288987e-02 2.510232317077401576e-01
5.363166312984281703e+00 -9.226074893437500535e+00 9.322419227353799798e-01 -3.002356562825280739e-01 5.396133583217259666e-01 -7.865595808439106440e-01
8.031219174339966571e+00 1.966784042348448613e+00 -2.259364817908869671e+00 3.718532764096305065e-01 -4.742222380877748056e-01 7.980215596877348050e-01
6.946988961216777447e+00 -5.241186194152883893e+00 1.294574580897405180e+00 5.599959202420674576e-01 5.550417911326452902e-01 6.150879444506329730e-01
-1.702732443733238288e+00 -9.611172504372284209e+00 -3.042322464795438552e+00 9.916155474140310178e-01 -1.270386012837879941e-01 2.366009109514246103e-02
3.174228583498678535e+00 7.193235373283479284e+00 -2.936647553601944960e+00 8.218647325246147828e-01 -3.079707391982286491e-01 -4.792623344577996991e-01
-8.576383521162124879e+00 5.938182810428668468e+00 -1.588200433027476599e+00 5.040269615615019516e-01 6.213579406730744825e-01 5.998926000390369939e-01
1.876994981577583710e+00 -1.058978323654922349e+01 1.931723464884828323e-01 8.884077007246877766e-01 1.874013134408025472e-01 -4.190614573230706519e-01
4.218862603465189487e+00 -9.350274260301691953e+00 -5.945875450867226242e-01 7.679625865629885473e-01 3.702826865616292151e-01 -5.226128563977225916e-01
4.932687520980834961e+00 -6.416654825210571289e+00 -3.391673743724822998e+00 -8.150135712639289265e-01 -5.274295679869451803e-01 -2.399394287496763867e-01
7.007957972480543418e+00 5.957383096248117127e+00 -2.974696220166629601e+00 6.796449310558653201e-01 -7.332575716496897433e-01 2.039856143133982752e-02
2.744200938525516609e+00 1.087810247530493868e+01 5.365837631904752936e-01 9.293151168213950042e-01 -1.239080286067583969e-01 3.478795971223716532e-01
-5.952351121205446738e+00 5.931039351693900841e+00 -2.925829867916213356e+00 7.346874034634024442e-01 6.747885539506617292e-01 -6.996303773692628958e-02
-2.842590060899965465e-01 -8.402135848999023438e+00 -3.083340525627136230e+00 8.808237171244630570e-01 -1.817129630759332093e-01 4.371841470149715470e-01
3.316731257501367658e+00 -8.824421521021580617e+00 2.433532981197526368e+00 9.574874614329935696e-01 2.864112650130928861e-01 -3.444340970638262722e-02
7.988145139460381294e+00 -4.940493156781506912e+00 -3.582025630778461256e+00 3.860082375513917419e-01 8.346145085516476492e-01 -3.929583472297797364e-01
-8.103923968009844714e+00 -1.651250868556758622e+00 1.034829481731033063e+00 4.765883999051726549e-01 -8.461492148165632443e-01 2.385267350657805097e-01
-2.369239566160127097e+00 -9.420883998021441386e+00 -1.657148188370653585e+00 6.830723705528627399e-01 3.640038494000311098e-01 -6.331771744221770248e-01
8.867587887547900394e+00 -2.102579828909018733e+00 -4.550962903662937320e-01 5.101690423920100109e-02 -9.094624483454868402e-01 4.126443147933590017e-01
-8.862414144708584018e+00 -1.203199483304564499e+00 -3.981893879161795269e-01 4.407583967940109648e-01 -8.495797056323149965e-01 -2.897349813765719984e-01
1.025037762250447315e+01 -2.111218148708156939e+00 2.822891282997627371e+00 3.688992193376604972e-02 -9.515682011636810156e-01 3.052164677631875600e-01
-7.404077865268551051e+00 3.832692432081654665e+00 3.237513512372970581e+00 -5.618870301394638389e-01 -8.241290170914419289e-01 -7.137456514016063402e-02
4.489492715076209839e-01 -9.160971163378583526e+00 3.151025864739164462e+00 9.463872143144880233e-01 4.178721638328117619e-03 3.230073975430475253e-01
-6.116421193583473581e+00 -5.736853194963970282e+00 -9.126352981396264052e-01 8.900642891289021197e-01 -4.555007700071966870e-01 -1.745307251784640815e-02
-7.327122427608333766e+00 4.123491900837376711e+00 3.083346009254455566e+00 -5.556466480363052574e-01 -8.294604803462483078e-01 -5.702730985930460489e-02
5.324813777680438065e+00 -7.025004546709922693e+00 1.301620440385653721e+00 7.525270714210600120e-01 5.544339690295601031e-01 3.553955272152021783e-01
3.084103083417726321e+00 -9.615932096747490831e+00 1.716402908054430521e+00 8.430488099579526162e-01 3.367759820409297333e-01 -4.193454923435415704e-01
2.209568618826144970e+00 -8.971243049141063963e+00 2.174050038910173122e+00 9.007842733151073533e-01 8.579560017195095312e-02 4.257074205828562108e-01
8.379370604452169857e+00 8.667998197980602004e-01 -9.914759970850222093e-01 6.674477003914109918e-01 -4.914018220087435496e-01 5.594978253476097230e-01
1.272871639280631406e+00 -9.014765610320907285e+00 2.904704990638435902e+00 9.000783403671258620e-01 3.482001807732486992e-02 4.343346032070840024e-01
7.169673515542846154e+00 -5.062301898585589655e+00 -1.608310383594377502e+00 1.857489394582454434e-01 8.313465258898703469e-01 -5.237941249966251434e-01
-5.497500802343509463e+00 -6.753667929450235086e+00 1.076661161824313373e+00 9.209331582346378386e-01 -3.647686387136899189e-01 1.372077194436850944e-01
-4.163160026073455811e+00 -9.987162351608276367e+00 -3.391673743724822998e+00 8.452147926253199550e-01 -2.184253647770303397e-01 -4.877523083998256959e-01
-7.904062822258354437e+00 -6.297123914632016373e+00 2.809113289515465794e+00 7.955904730394137703e-01 -4.467099780643931650e-01 -4.092505280468567430e-01
-4.332701876871873914e+00 -8.751773793403568646e+00 -3.511320703640917529e+00 -9.156285965157522355e-01 3.499345502809835806e-01 1.979143344031448759e-01
8.868026608308484882e+00 4.119937722669111402e+00 -2.597446883678584229e+00 -5.702727870931120213e-01 8.190809169543952217e-01 -6.241313789740882134e-02
7.385349624524494061e+00 -3.268605675441447200e+00 -2.024276865954846460e+00 -6.091974731941907084e-01 -7.123280362297189638e-01 -3.485214591024852204e-01
-4.720285189401904447e+00 -7.210106355778106213e+00 -1.916422753608942209e+00 -8.596893637485826245e-01 5.011307561087239293e-01 9.900587426741722097e-02
-9.487991666720231976e+00 -1.928196157650013065e+00 -7.496461421133542302e-01 4.947341912016768872e-01 -6.453906285912649476e-01 -5.819871275059220750e-01
5.941537762132642619e+00 -6.333773763939770873e+00 -2.382830400853202857e+00 1.016717452390226012e-01 6.366216613291799664e-01 -7.644447112424326285e-01
-2.127366058064086740e+00 -1.089387032893040441e+01 3.464974711044440880e+00 9.886176864566185163e-01 -9.478285658013779758e-02 -1.168386927506126216e-01
-6.252956677727869561e+00 -7.393589140681155136e+00 -3.427809627731726927e+00 -7.744792283069055205e-01 3.387884753537913074e-01 5.342324343285361765e-01
-5.357999654704564962e-01 -1.010166657684724179e+01 -8.414599699713170011e-01 9.436971964423617187e-01 1.574993155977394144e-01 -2.909116137473208852e-01
4.054498085973582633e+00 -7.313923392897856424e+00 4.613685062230813982e-01 8.106555348906401282e-01 4.935684576746964813e-01 3.150044147941289396e-01
1.994675437713962773e-01 8.915020534302591670e+00 -1.558418634346995013e+00 8.764915115718866501e-01 7.164372599664241281e-02 -4.760565162538450412e-01
-7.289673186923824488e+00 4.319694119369938967e+00 3.391681015491485596e+00 -5.760664658861782694e-01 -8.036811450621191844e-01 -1.491443728507694522e-01
-8.940574810464084976e+00 -2.418877872154006070e+00 -2.531028532974175072e+00 1.828263878400208098e-01 9.103587098309504633e-01 -3.712432239708862158e-01
-5.866027608279710037e+00 -7.652723752424419601e+00 -3.597378526425202061e+00 -8.127741589125044852e-01 3.383622023906170950e-01 4.742459136328346370e-01
-2.144588756433694066e-01 1.049825286692220416e+01 -1.623726971581588296e+00 9.890508880283419568e-01 -3.286281000528859519e-02 1.438693039147141417e-01
-4.639822595674353956e+00 -8.026746355984714754e+00 3.067335725473391062e+00 -8.985128613552705312e-01 3.750501292042494050e-01 -2.280614797878861288e-01
4.880413248302703622e+00 -6.796796665173792107e+00 -2.411403759546210779e+00 -7.542051431368755887e-01 -6.417896411753009067e-01 -1.388548110292304183e-01
-4.872987759363452298e+00 -7.335541588894256115e+00 -2.841423003948450265e+00 -8.863922335472421699e-01 4.427387328104863684e-01 1.352450471422000644e-01
1.058239258213115930e+00 9.289800728733228041e+00 1.223489357149590173e+00 8.442356841326081884e-01 3.987155227803831220e-02 5.344870147684473993e-01
8.862327135088245100e+00 3.256792305146322342e+00 -7.695789690687915297e-01 4.868492290463106165e-01 -8.595915251467148854e-01 1.551780850280005397e-01
-8.186927661299705505e-01 -8.596796751022338867e+00 -3.391673743724822998e+00 9.373352919750475021e-01 -2.855470751020668940e-01 1.996632623160975728e-01
-5.856360536604964251e-01 9.695365999973715176e+00 1.065538727297436816e+00 -8.773795400005145462e-01 -2.877815408012294185e-01 -3.839100513955786553e-01
1.972345866807717618e+00 9.702332794836912910e+00 2.465452400363942864e+00 9.521344982180046657e-01 -1.646802531137696590e-01 2.575273025089437340e-01
9.046308468872053865e+00 -4.574519905732244318e+00 1.152068773113870570e+00 -2.976506115895963811e-01 -9.528192459154742888e-01 5.949452103686687227e-02
-7.902698024659313703e+00 4.486203508559461817e+00 -6.867983274579988473e-01 3.785310809040345892e-01 9.057324650485542028e-01 1.906906461961179744e-01
-4.834086949503803687e+00 7.204166791202544218e+00 -3.010702426428650824e+00 9.770232036711141710e-01 1.140799267645544179e-01 1.800317466382711229e-01
-8.330187046417441010e+00 6.835586879096359203e-01 1.561156232044217385e-01 -1.486515885270718873e-01 9.682957805017226027e-01 2.007635093609835830e-01
-5.583329919839958855e+00 -7.572422784437246257e+00 2.989470693511463661e+00 8.643102271280425075e-01 -4.819453224743368569e-01 -1.438629119230500630e-01
-3.293510984746185866e+00 8.270423731053924143e+00 -1.412228487725844861e+00 -8.887928101642670331e-01 -4.578563797576187810e-01 -2.036850793633067369e-02
7.274696894674087311e+00 -4.745050420112272960e+00 -4.935415533400558941e-01 5.854832797511514419e-01 8.005283165581860150e-01 1.279208486539698542e-01
