1.258289029495817779e+01 3.445940393803694324e+00 9.054473829786934269e-01 -2.641334156850062564e-01 9.644861526836825405e-01 0.000000000000000000e+00
-1.070009328156764195e+00 9.257159724703550197e+00 1.754273108005858450e+00 -9.933859986570386935e-01 -1.148227228041475145e-01 0.000000000000000000e+00
6.286384071023232600e+00 -6.329311167734307908e+00 -1.832911530015059576e+00 7.095087275623533918e-01 7.046966478654842492e-01 -0.000000000000000000e+00
4.516737162712412434e+00 1.000874086447068834e+01 -2.138437399777763037e+00 -9.114846392912009376e-01 4.113341127796108498e-01 0.000000000000000000e+00
-5.004066118970647459e+00 -1.059858032768086389e+01 -1.623328793769647227e+00 9.042756271901771781e-01 -4.269491656741022378e-01 0.000000000000000000e+00
2.245058595036747207e+00 -9.877579702772690595e+00 3.458606925639879481e+00 9.751295676402250701e-01 2.216355709577952082e-01 -0.000000000000000000e+00
1.045047218911350306e+01 2.073163338034778036e+00 -1.116847330601058230e+00 -1.945878593906664178e-01 9.808850926473284826e-01 0.000000000000000000e+00
1.279344114054796222e+01 1.142876122440604769e+00 2.806906678424790247e+00 -8.897863612231646235e-02 9.960335347335512735e-01 0.000000000000000000e+00
1.047228046159313486e+01 -2.214349060742042852e+00 2.348180510641561192e+00 2.068744399838250703e-01 9.783675005238976485e-01 -0.000000000000000000e+00
4.938867395473690358e+00 8.796038205804958210e+00 -3.190018886413679589e+00 -8.719524413411956498e-01 4.895905840997443748e-01 0.000000000000000000e+00
-1.042968497639711423e+01 -2.456514409277902100e+00 -3.334245517606069242e+00 2.292578299829772237e-01 -9.733657315683024169e-01 0.000000000000000000e+00
-9.805471461847130143e+00 4.246336195568792604e+00 -1.250792179600738407e+00 -3.973945800232031034e-01 -9.176478342851259740e-01 0.000000000000000000e+00
-6.815083264160398002e+00 -1.057347229193539206e+01 4.755117755029644733e-02 8.405323823906937220e-01 -5.417613073601921236e-01 0.000000000000000000e+00
-2.200484343788956451e-02 -1.172499983048183836e+01 2.462150504890548319e+00 9.999982389173732722e-01 -1.876742431017826068e-03 0.000000000000000000e+00
-2.201138496398925781e+00 9.209637880325317383e+00 3.391666769981384277e+00 -9.726067431654525919e-01 -2.324567124199500567e-01 0.000000000000000000e+00
1.051800341816433537e+01 -4.549034073065975292e+00 7.106116639175658056e-01 3.969632191846582114e-01 9.178345180992885100e-01 -0.000000000000000000e+00
4.171928713057493354e+00 1.034610136570297101e+01 -2.869654643659196758e+00 -9.274379386581723672e-01 3.739770981457021803e-01 0.000000000000000000e+00
6.184080601513900710e+00 9.278058626480190085e+00 -2.349742060095884266e+00 -8.321037627857603702e-01 5.546199851770392542e-01 0.000000000000000000e+00
1.102859547892048653e+01 1.261336144560257111e+00 -3.152274594368881022e+00 -1.136288667596241225e-01 9.935232662796195102e-01 0.000000000000000000e+00
-1.029962314579218230e+01 -3.487315528166319289e+00 3.418232857747564690e+00 3.207025475199029585e-01 -9.471799596772750851e-01 0.000000000000000000e+00
-9.050806210339853664e+00 6.594743613613538891e+00 3.430960301062811801e+00 -5.888921315169540760e-01 -8.082116414884275013e-01 0.000000000000000000e+00
1.090997077309303620e+01 -1.419295686662849887e+00 7.830376448526717992e-01 1.290045666028048765e-01 9.916439995258493623e-01 -0.000000000000000000e+00
8.547874963698980366e+00 6.039729744745879536e+00 -3.023208689857773468e+00 -5.770616507402275275e-01 8.167005884930925719e-01 0.000000000000000000e+00
-5.049399992527979997e+00 -9.765163792234314855e+00 -3.395962316461709207e+00 8.882750522525180159e-01 -4.593119109557104451e-01 0.000000000000000000e+00
-8.644282795131912778e+00 1.328480283902664816e+00 -8.538063812826142129e-01 -1.518997587695866680e-01 -9.883959041223012720e-01 0.000000000000000000e+00
5.330232700903120069e+00 -7.971112163277051188e+00 2.815105897327965678e+00 8.312717666917218695e-01 5.558662158300533562e-01 -0.000000000000000000e+00
-9.129027020181975871e+00 2.663586697530666569e+00 2.435701951164134904e+00 -2.800924348638835215e-01 -9.599730350025573733e-01 0.000000000000000000e+00
-6.074299747296114660e+00 -8.732650418207470011e+00 3.194267854639686988e+00 8.209310918195957818e-01 -5.710272694748357303e-01 0.000000000000000000e+00
-1.043806041052621580e+01 -5.613763715497280593e+00 -2.322985838554703086e+00 4.736595332775440093e-01 -8.807080370561513050e-01 0.000000000000000000e+00
4.573114543191513448e+00 8.300272788479013286e+00 4.221220122963877386e-01 -8.758607868601074875e-01 4.825638631733563666e-01 0.000000000000000000e+00
-9.946676838364059137e+00 1.017996022401314704e+00 -1.563084117726800670e+00 -1.018135027539456422e-01 -9.948035035407606363e-01 0.000000000000000000e+00
7.456952177784095248e+00 -6.068085047297438805e+00 1.052393955829352690e+00 6.311758448411143307e-01 7.756397700537960294e-01 -0.000000000000000000e+00
-4.214903861534438967e+00 9.317249224420320886e+00 3.490926865564672354e+00 -9.111094730961704080e-01 -4.121644429525904152e-01 0.000000000000000000e+00
-7.968876691773633780e+00 3.553248744303818096e+00 -1.665639187425381529e+00 -4.072412562132631253e-01 -9.133206223653571598e-01 0.000000000000000000e+00
9.928181883696950649e+00 5.294877116782476634e+00 3.480073741004251264e+00 -4.705776334774098291e-01 8.823585953969057538e-01 0.000000000000000000e+00
-9.695212838662833121e+00 8.291089593974180216e-01 -1.195095026543254502e+00 -8.520635636518703038e-02 -9.963633257175661395e-01 0.000000000000000000e+00
-8.495463952428005783e+00 1.842087043857848494e+00 -3.162740729668219064e+00 -2.119075244626626164e-01 -9.772897221786926991e-01 0.000000000000000000e+00
-1.487180247902870178e+00 9.110630035400390625e+00 3.083333492279052734e+00 -9.869375239769907493e-01 -1.611034567170020748e-01 0.000000000000000000e+00
2.003577824359335402e+00 8.454483290782203397e+00 -2.941408353693816924e+00 -9.730493003200143542e-01 2.305971793989049223e-01 0.000000000000000000e+00
-1.333334811952051169e+00 -1.111792755206406902e+01 4.433019990411505851e-01 9.928854617064980514e-01 -1.190733384594310912e-01 0.000000000000000000e+00
1.117487084788825413e+00 -1.026076283528263389e+01 -3.132531354841768589e+00 9.941216808484308887e-01 1.082685719269019381e-01 -0.000000000000000000e+00
4.184865618328347026e+00 -9.785549633725777241e+00 -1.989409912446970852e+00 9.194489408706860711e-01 3.932094163823822708e-01 -0.000000000000000000e+00
2.078713969775777048e+00 -1.026268301291579377e+01 1.251150646848387504e+00 9.800969666259635726e-01 1.985193592841383581e-01 -0.000000000000000000e+00
-1.648673633970307639e+00 -8.761771750586309082e+00 -2.709933982498382576e+00 9.827533059663603465e-01 -1.849214417318588433e-01 0.000000000000000000e+00
-2.664317560142067443e+00 9.496944070266593485e+00 1.158456302714806263e+00 -9.628277198735015752e-01 -2.701162376518562169e-01 0.000000000000000000e+00
-1.593324205658597226e+00 -1.004157444514708786e+01 8.786067113126054817e-01 9.876443060333325308e-01 -1.567122355144522916e-01 0.000000000000000000e+00
-4.835685267979871860e+00 9.154944980302666124e+00 -2.197888100037669989e+00 -8.842288629928888311e-01 -4.670538703943083458e-01 0.000000000000000000e+00
-1.050068980684582876e+01 3.076382339292222490e+00 -3.446357668897132021e-01 -2.811520993323197715e-01 -9.596632206357756933e-01 0.000000000000000000e+00
-1.058136901114146866e+01 2.537046859574501489e+00 -3.220824058495743270e+00 -2.331572970135423750e-01 -9.724390340012780687e-01 0.000000000000000000e+00
1.036292333190670334e+01 1.889303009170059555e+00 5.059608559138581985e-01 -1.793573114804215551e-01 9.837839980496303482e-01 0.000000000000000000e+00
2.332768314049451508e+00 9.523510502034930880e+00 -1.038593272535522916e+00 -9.712859994029934274e-01 2.379149162278990648e-01 0.000000000000000000e+00
9.526844532127178411e+00 3.608656663352274307e-01 -1.672094117356573095e+00 -3.785167873679606138e-02 9.992833684279981421e-01 0.000000000000000000e+00
9.772191848862391339e+00 -5.385336646534836902e+00 3.459031314089283882e+00 4.826500934338043280e-01 8.758132719411942935e-01 -0.000000000000000000e+00
1.043440575103340651e+00 -9.195481356336348000e+00 -6.477621337619420272e-01 9.936234315738911027e-01 1.127496174154270919e-01 -0.000000000000000000e+00
-5.916052691991771084e+00 -9.022789253882290694e+00 -4.493552940131960716e-01 8.362669103639983614e-01 -5.483225826374948930e-01 0.000000000000000000e+00
6.925027492583135214e+00 -7.399258302361651829e+00 3.333013501963200120e+00 7.301167858711851144e-01 6.833223829124361881e-01 -0.000000000000000000e+00
-4.754825411399191459e+00 -1.131933572072563265e+01 1.382931110950062159e+00 9.219616205005690679e-01 -3.872812548058128801e-01 0.000000000000000000e+00
-1.479191228747367859e+00 1.177281785011291504e+01 3.391666769981384277e+00 -9.921989579108225765e-01 -1.246644613379362804e-01 0.000000000000000000e+00
-4.916430086965031809e-01 -1.146727381785549760e+01 2.575704925507037668e+00 9.990821934422133843e-01 -4.283422401183140799e-02 0.000000000000000000e+00
-3.932860344651856188e+00 1.067136017170781059e+01 -1.615870637707390589e+00 -9.383058435314418633e-01 -3.458065123660187812e-01 0.000000000000000000e+00
-2.199674725532531738e+00 1.195779800415039062e+01 3.083333492279052734e+00 -9.834982551221636005e-01 -1.809176115574699095e-01 0.000000000000000000e+00
4.241746688231634366e+00 -7.145848337058287925e+00 -2.939669115227874219e+00 8.599128880140265441e-01 5.104408144215900611e-01 -0.000000000000000000e+00
-6.233444537572236932e-01 -1.014278441374694140e+01 5.819063285699522803e-01 9.981168552405306205e-01 -6.134120380913672677e-02 0.000000000000000000e+00
-3.905798692577151066e+00 1.032701760625086784e+01 1.275248671092007458e+00 -9.353378548770380219e-01 -3.537557027583037583e-01 0.000000000000000000e+00
3.559345909419988629e+00 -1.017887175724273874e+01 1.276526712586343038e-01 9.439525598471086854e-01 3.300811487469268446e-01 -0.000000000000000000e+00
-6.059987363427327800e+00 9.652329340025001869e+00 6.850082527520878761e-02 -8.469207130122085037e-01 -5.317191983283023893e-01 0.000000000000000000e+00
-2.457874656220970344e+00 1.150212792949185925e+01 -3.086437252688387090e-02 -9.779218712598942709e-01 -2.089708441662296023e-01 0.000000000000000000e+00
1.057788220253105926e+01 -3.741758292974874056e+00 9.334551862553481794e-01 3.334848160574993003e-01 9.427554706598610945e-01 -0.000000000000000000e+00
7.326295999744332654e+00 8.391216988009091438e+00 -3.166194795792114824e+00 -7.532889066968031511e-01 6.576897620060199179e-01 0.000000000000000000e+00
-3.429733540117668067e+00 9.391869342955359912e+00 -1.922546946402907020e+00 -9.393265196107207782e-01 -3.430243279360959963e-01 0.000000000000000000e+00
-5.865725278854370117e+00 1.004959106445312500e+01 3.391666769981384277e+00 -8.636493135463344517e-01 -5.040931096642222720e-01 0.000000000000000000e+00
3.947518973580917745e+00 8.583051528408212505e+00 4.221220122963877386e-01 -9.085179682359271203e-01 4.178457866156641276e-01 0.000000000000000000e+00
-1.060782939424817251e+01 2.760742068582231035e+00 -6.529690147897223573e-01 -2.518651201710868093e-01 -9.677623475012883114e-01 0.000000000000000000e+00
2.885286933410110333e+00 -8.769380037689902707e+00 9.121022051738201242e-01 9.499057746375868527e-01 3.125364287729772150e-01 -0.000000000000000000e+00
1.013690491427731999e+01 -1.231867325564700133e+00 2.871125256127807113e+00 1.206355238975887201e-01 9.926968673134585197e-01 -0.000000000000000000e+00
-1.142922286344647098e+00 -8.843639876819263890e+00 -2.788652784622098757e+00 9.917521208021401469e-01 -1.281707099319394638e-01 0.000000000000000000e+00
-9.586253902203575095e+00 -1.813012730543837492e+00 1.318525149469500279e+00 1.858320092505020282e-01 -9.825815306313879782e-01 0.000000000000000000e+00
-5.129712953307521417e-01 1.100111079307249540e+01 3.379734016719773582e+00 -9.989146356438375340e-01 -4.657843596064299013e-02 0.000000000000000000e+00
-5.316542983055114746e+00 1.073219847679138184e+01 3.391666769981384277e+00 -8.960761294568857505e-01 -4.439004057416108817e-01 0.000000000000000000e+00
1.329280044883489609e-01 1.223898053169250488e+01 3.083333492279052734e+00 -9.999410241693932333e-01 1.086039516156433321e-02 0.000000000000000000e+00
-7.372493017609615507e+00 8.825212806689142653e+00 -2.071451135695473678e+00 -7.674445282142232649e-01 -6.411153532041238279e-01 0.000000000000000000e+00
9.782800647583364650e+00 -2.325777851490823611e+00 3.461061575267749824e-01 2.312948453119434700e-01 9.728837004144555989e-01 -0.000000000000000000e+00
-3.637358259246718184e+00 1.098511886602398135e+01 3.497428985934171841e+00 -9.493126408379838344e-01 -3.143334375232982314e-01 0.000000000000000000e+00
-9.672068372235818501e+00 -5.237205218862147404e+00 1.827169963806376085e+00 4.761543788961429269e-01 -8.793617045664592347e-01 0.000000000000000000e+00
-2.312756136215945002e+00 1.030917513599032986e+01 1.652922203229040932e+00 -9.757475652046883052e-01 -2.188988099490783157e-01 0.000000000000000000e+00
-6.654380791242564541e+00 -1.072617150752914128e+01 -7.576885419132052268e-01 8.497552598313321548e-01 -5.271773879720045297e-01 0.000000000000000000e+00
2.586526072510177965e+00 1.133039452654880463e+01 -3.220479905314275193e+00 -9.749197456053014799e-01 2.225567110398925241e-01 0.000000000000000000e+00
1.080248726981340823e+01 1.913008712601035888e-01 2.170175768778120684e+00 -1.770618903287557791e-02 9.998432331470430423e-01 0.000000000000000000e+00
-6.260055353737635775e-01 -8.568768478703061575e+00 -3.207879159256741719e+00 9.973419979564960292e-01 -7.286246710168944873e-02 0.000000000000000000e+00
2.000780779403761755e+00 1.138390167094731709e+01 1.123612478378522184e+00 -9.849038929706933621e-01 1.731020554793425426e-01 0.000000000000000000e+00
5.765876881801265341e+00 8.740104961307249454e+00 -3.430085721754696504e+00 -8.347232135999091973e-01 5.506697346662886572e-01 0.000000000000000000e+00
9.012393374859557937e+00 2.262582636300246364e+00 -2.100530026949714024e+00 -2.434961527493558764e-01 9.699018628687453569e-01 0.000000000000000000e+00
7.219207000937873708e+00 -8.057314422609936244e+00 1.189279055316778688e+00 7.447803820944163267e-01 6.673096600883994256e-01 -0.000000000000000000e+00
-8.404399038159425572e+00 2.476168473685925076e+00 3.536019953039310160e+00 -2.826165687984137920e-01 -9.592329618192921847e-01 0.000000000000000000e+00
9.798087531841273901e+00 -6.292425364128223286e+00 6.995669571833764699e-01 5.403719710958870825e-01 8.414262492066347798e-01 -0.000000000000000000e+00
-6.134959712839691548e+00 -1.006924125711497808e+01 -1.198305785102642851e+00 8.539778846096083287e-01 -5.203093047387280512e-01 0.000000000000000000e+00
-1.082234257405627176e+01 2.268283854410162448e+00 9.306884734246801960e-01 -2.051354052164877095e-01 -9.787336029414068772e-01 0.000000000000000000e+00
-9.134877228089514745e+00 -5.989818406987937882e-01 -6.447347191007706257e-01 6.543035996989420011e-02 -9.978571380684763126e-01 0.000000000000000000e+00
-5.689665333662587088e+00 -9.373058301988164587e+00 -7.517735872755431092e-01 8.548328277924737151e-01 -5.189034944267798544e-01 0.000000000000000000e+00
-1.115632222202631851e+01 -1.163832614142823463e+00 7.737867491344443405e-01 1.037573997905235079e-01 -9.946026352210763921e-01 0.000000000000000000e+00
-7.664197812026613654e+00 5.807088791065297073e+00 -4.797663101984016576e-01 -6.039157215790418309e-01 -7.970481799926935063e-01 0.000000000000000000e+00
8.250931000353276090e+00 9.284099424962583669e+00 1.883787559137556578e+00 -7.474733527509693776e-01 6.642917935118761719e-01 0.000000000000000000e+00
1.043714412699959837e+01 -5.643376121022141589e+00 3.459031314089283882e+00 4.756263835609084167e-01 8.796473971204438191e-01 -0.000000000000000000e+00
-7.333254260138375002e+00 -9.029620286461138789e+00 3.477880542988229351e+00 7.762533378841717235e-01 -6.304210937331350406e-01 0.000000000000000000e+00
8.874088432848685759e-01 1.050312007325900510e+01 -2.417771621038474983e+00 -9.964497147992417148e-01 8.419005806216174614e-02 0.000000000000000000e+00
-9.625953251473362116e+00 -2.037078238175936473e+00 3.014078926888694721e-01 2.070382539983840753e-01 -9.783328479517086063e-01 0.000000000000000000e+00
-1.287990735483384830e+00 -1.009339929148666570e+01 1.057316466026123336e-01 9.919563003869267259e-01 -1.265807968164263386e-01 0.000000000000000000e+00
-6.512141823768615723e+00 9.921179294586181641e+00 3.083333492279052734e+00 -8.359950344227391472e-01 -5.487370066074670483e-01 0.000000000000000000e+00
-6.020514972785834251e-01 -9.440584346955102291e+00 -1.588385789190101871e+00 9.979727033503420497e-01 -6.364340788809505489e-02 0.000000000000000000e+00
-5.310869237484950212e+00 -1.024269403324688810e+01 -3.087629038759377664e+00 8.877601026697895525e-01 -4.603064197985130002e-01 0.000000000000000000e+00
7.250840011995899559e+00 8.912462356012213149e+00 -7.349020025886213725e-01 -7.757106910434807823e-01 6.310886814076493989e-01 0.000000000000000000e+00
7.566455005776036025e-01 -1.057520554938418478e+01 2.466091639337175234e+00 9.974501553207681948e-01 7.136657236112442515e-02 -0.000000000000000000e+00
4.118145787028364424e+00 -8.730600714966506359e+00 2.887638398328365330e+00 9.044340746101916517e-01 4.266134136240987140e-01 -0.000000000000000000e+00
7.436728668347188709e+00 -5.312744759157531860e+00 -2.906729121806519434e+00 5.812958420366531875e-01 8.136922907530208526e-01 -0.000000000000000000e+00
-8.067730859635375396e+00 -7.304064908991959371e+00 2.809640195164712639e-01 6.711502272070747344e-01 -7.413213692589011306e-01 0.000000000000000000e+00
-9.795561106045614252e+00 -5.812115897907136564e+00 4.879353099009212102e-02 5.102791804239749096e-01 -8.600088127605649557e-01 0.000000000000000000e+00
1.259734320723313239e+01 1.413797592718011586e-01 4.521034637714500537e-01 -1.122227552429327924e-02 9.999370282833098811e-01 0.000000000000000000e+00
2.219059898561572375e+00 -7.566805754437209153e+00 -2.917379996147320131e+00 9.595873542911041998e-01 2.814109263774223213e-01 -0.000000000000000000e+00
-9.108829152609883906e+00 2.378832660324267323e+00 -1.985871676375419170e+00 -2.526820927810845552e-01 -9.675493579077873996e-01 0.000000000000000000e+00
-1.031000773851908825e+01 -3.500321275145455324e+00 -2.451822062629596399e-01 3.214843679096536233e-01 -9.469148859267819685e-01 0.000000000000000000e+00
9.187552701707451419e+00 5.797402274127637867e+00 2.234690251625195856e+00 -5.336466599668342470e-01 8.457075394639935739e-01 0.000000000000000000e+00
-9.221758768857309718e+00 6.630860571278028637e+00 2.197626981637228916e+00 -5.837940234659094729e-01 -8.119018032776410543e-01 0.000000000000000000e+00
-9.346830294431040187e+00 6.357852820766859203e+00 1.889293495318640437e+00 -5.624314952300845105e-01 -8.268438868209957437e-01 0.000000000000000000e+00
-8.982808277905771632e+00 6.201656345737867504e+00 3.430960301062811801e+00 -5.681436376881645600e-01 -8.229294058146541246e-01 0.000000000000000000e+00
7.887883328886331036e+00 -4.307358458868239204e+00 -3.466524134881543873e+00 4.792702687787626092e-01 8.776673683490420208e-01 -0.000000000000000000e+00
3.714208364659563166e+00 -8.770907105982225005e+00 -1.398258176726219215e-02 9.208376012106331832e-01 3.899462939901431890e-01 -0.000000000000000000e+00
1.255457212252091459e+01 -1.045991593153238641e+00 5.489134212584682038e-01 8.302792047085648386e-02 9.965472213710123706e-01 -0.000000000000000000e+00
4.130345570249336795e+00 -7.543497787688782985e+00 -1.543870774687249980e+00 8.771265144941553515e-01 4.802593857191491122e-01 -0.000000000000000000e+00
-9.332697517574430890e+00 3.646355153352594858e+00 -2.629050600720658437e+00 -3.639172168578038158e-01 -9.314312960570254596e-01 0.000000000000000000e+00
3.877841502374850702e+00 7.959555236164042924e+00 -1.740261113515501279e+00 -8.989850009617006421e-01 4.379794150937820763e-01 0.000000000000000000e+00
-1.054209924039788149e+01 1.248092486491477526e+00 2.759701443525518272e+00 -1.175701735504522949e-01 -9.930645771002593047e-01 0.000000000000000000e+00
-1.044369242540283160e+01 -3.624359779686940897e+00 -3.347473256836331235e+00 3.278565029899771499e-01 -9.447275339732525978e-01 0.000000000000000000e+00
-4.173885859994853398e+00 -1.090678208121783932e+01 1.932949896959531566e-01 9.339476575438572237e-01 -3.574098109570328363e-01 0.000000000000000000e+00
-8.767322584309280131e+00 -1.258516591415019259e-01 2.055341746006752235e+00 1.435314986192663157e-02 -9.998969882388092367e-01 0.000000000000000000e+00
6.972342118114545073e+00 8.116482667824540087e+00 6.729909614024226494e-01 -7.585469811085294722e-01 6.516183526046027685e-01 0.000000000000000000e+00
-7.744265595735498664e+00 -8.945613640154025603e+00 -2.878935354826875681e+00 7.560486802042184484e-01 -6.545153880249567901e-01 0.000000000000000000e+00
-9.775263942801853290e+00 1.300377497034261864e+00 2.311201051467791423e+00 -1.318657046744270422e-01 -9.912675904773226021e-01 0.000000000000000000e+00
-9.255537793115319545e+00 -6.746092574426105770e-01 -1.933034203491395875e+00 7.269425508858586016e-02 -9.973542727020903165e-01 0.000000000000000000e+00
4.688086118006496328e+00 -8.444488972514223590e+00 1.037008834406043079e+00 8.743021367268540844e-01 4.853820904348014054e-01 -0.000000000000000000e+00
-1.142685949407896029e+00 1.086645306405154798e+01 -2.315581513674184411e+00 -9.945164165722748528e-01 -1.045805773948574324e-01 0.000000000000000000e+00
3.751730857978782918e+00 1.081150401691499852e+01 -3.138514997497414694e+00 -9.447349382493056558e-01 3.278351665869307929e-01 0.000000000000000000e+00
1.115887529159801872e+01 2.470858092168381592e+00 2.661190564998108243e+00 -2.161889996636441602e-01 9.763515332217352904e-01 0.000000000000000000e+00
1.076304574717832097e+01 -1.358424064775782591e+00 3.487791811532470199e+00 1.252184745330426618e-01 9.921291920085900662e-01 -0.000000000000000000e+00
-1.079331552211936796e+01 -5.570364956826628244e+00 1.292266647251572032e+00 4.586183096540427107e-01 -8.886333586187663558e-01 0.000000000000000000e+00
1.115875307368403213e+01 4.115686536809748830e+00 1.381594740211663286e+00 -3.460434332138969671e-01 9.382184939178823679e-01 0.000000000000000000e+00
5.682454475281998540e+00 6.705057461570434363e+00 -2.165004611708242432e+00 -7.628842427220230427e-01 6.465350974281639518e-01 0.000000000000000000e+00
-5.792900551255245389e+00 7.598187178599237868e+00 -1.763117649376885421e+00 -7.952396749525321162e-01 -6.062951916198833224e-01 0.000000000000000000e+00
-1.294877790537175777e+00 1.220744144821627941e+01 -1.691121159439716859e+00 -9.944213103271744014e-01 -1.054810768203753024e-01 0.000000000000000000e+00
6.247752593861752857e+00 -9.562625438707964776e+00 6.602432069855671548e-01 8.371593597082163107e-01 5.469590537260803353e-01 -0.000000000000000000e+00
3.450903717770972712e+00 -8.786260566315123199e+00 -1.527678958925246855e+00 9.307818293234197959e-01 3.655751443976302806e-01 -0.000000000000000000e+00
4.959037955169494083e+00 -9.079453344413707327e+00 -7.461961246549814186e-01 8.776268874689280297e-01 4.793443922605140628e-01 -0.000000000000000000e+00
8.197369609366756293e+00 -7.747718786251056144e+00 1.106144879306848683e+00 6.868933322175433398e-01 7.267582473939182552e-01 -0.000000000000000000e+00
2.836886070703999452e-01 -9.904469633827197583e+00 -3.214633201500941784e+00 9.995900562909698639e-01 2.863074159388708309e-02 -0.000000000000000000e+00
-3.237949415243328577e-01 -9.600957075347414715e+00 -3.269286745164272645e+00 9.994317874945014557e-01 -3.370611436439856917e-02 0.000000000000000000e+00
1.176757038721219750e+01 -3.412383689139689924e+00 7.508493529854878279e-01 2.785085105267025574e-01 9.604337611538850128e-01 -0.000000000000000000e+00
4.092984641989890982e+00 1.118464836876000312e+01 3.033776849973108369e+00 -9.390946702338242025e-01 3.436585519646281894e-01 0.000000000000000000e+00
1.033721005769009160e+01 -5.153392625425385454e+00 -3.430017314256685323e-01 4.461596630601454838e-01 8.949533814998732462e-01 -0.000000000000000000e+00
9.134060028266162146e-01 -1.013219562820241926e+01 2.174697798821904726e+00 9.959611908727428187e-01 8.978477752574778870e-02 -0.000000000000000000e+00
7.070778901221359547e+00 7.985492301807540549e+00 3.151418526575993084e+00 -7.486852300448992859e-01 6.629256567011239110e-01 0.000000000000000000e+00
-7.592036181839753040e-01 1.061164738929252138e+01 -2.174888675627218770e+00 -9.974504849115243266e-01 -7.136196570838723718e-02 0.000000000000000000e+00
9.955182034867529950e+00 -1.895422560235339171e+00 2.871125256127807113e+00 1.870356825505706533e-01 9.823531205492463947e-01 -0.000000000000000000e+00
-1.479592872679528881e+00 -1.043356157565505882e+01 -3.525138309881261200e+00 9.900939946587921092e-01 -1.404061314209455735e-01 0.000000000000000000e+00
-2.421182673226326687e-01 1.106716552791678865e+01 -9.044492269967847609e-01 -9.997607805715161833e-01 -2.187193706631603354e-02 0.000000000000000000e+00
1.024672111521981321e+01 -6.133066305615342273e+00 2.842364758684620796e+00 5.135739427099454968e-01 8.580453399263711090e-01 -0.000000000000000000e+00
-7.136209658294867531e+00 -9.387507854864123757e+00 -3.016901435717395108e-01 7.960925871028479150e-01 -6.051748447844595979e-01 0.000000000000000000e+00
-3.282892611445280107e+00 1.141966924329886979e+01 1.206415259331451661e+00 -9.610751656724355607e-01 -2.762870353956199398e-01 0.000000000000000000e+00
-1.364375135021533181e+00 -9.066306003119230184e+00 -2.240849213905780957e+00 9.888653698461918884e-01 -1.488129037380642727e-01 0.000000000000000000e+00
9.156416094841299369e+00 5.723148907301465194e+00 -3.356259985063544171e+00 -5.300248356578765030e-01 8.479821186710490011e-01 0.000000000000000000e+00
-8.814385720008345970e+00 -3.726359903436277321e+00 1.378276468600089233e+00 3.893915161094734234e-01 -9.210723354774943417e-01 0.000000000000000000e+00
1.720305013004406636e+00 -1.021621541049069215e+01 3.217559303559695216e+00 9.861170135869674613e-01 1.660519060845756234e-01 -0.000000000000000000e+00
-1.969037695575769353e+00 1.114585611865406278e+01 -1.578466232271829861e-01 -9.847514576248329599e-01 -1.739671426039034186e-01 0.000000000000000000e+00
3.172006942785696282e+00 1.174740688735781902e+01 3.175447231784334079e+00 -9.654247996475090465e-01 2.606817144058382607e-01 0.000000000000000000e+00
9.871121552570834012e+00 4.596717198135030991e+00 2.488454433296290347e+00 -4.221458093371476816e-01 9.065279453271614107e-01 0.000000000000000000e+00
-8.489841823042205249e+00 -4.742604186429819180e+00 -1.956343806882908876e+00 4.876866359397458717e-01 -8.730187541661255102e-01 0.000000000000000000e+00
-9.353986343574444362e+00 3.860142557481863523e+00 3.134531831154264481e+00 -3.814680007736091505e-01 -9.243820446037375183e-01 0.000000000000000000e+00
-7.252641961260551717e+00 5.540902960330932103e+00 3.091784532285018372e+00 -6.070881174455925455e-01 -7.946345182889844594e-01 0.000000000000000000e+00
1.217242049095462519e+00 -9.873584829115323203e+00 2.322644468081103142e+00 9.924862313061046937e-01 1.223563675000422096e-01 -0.000000000000000000e+00
-8.750231827283805330e+00 1.516648126296392451e+00 -2.977595449021333440e+00 -1.707803038891935188e-01 -9.853091331168686295e-01 0.000000000000000000e+00
1.064969212795987019e+01 2.611165743357285240e+00 2.711824757469554648e+00 -2.381335348859376921e-01 9.712324230392681557e-01 0.000000000000000000e+00
3.009029352730090867e+00 1.091068476277142452e+01 2.775782251249681476e+00 -9.640110693391442664e-01 2.658621037146884913e-01 0.000000000000000000e+00
-2.303847848590489633e+00 1.088534325412252279e+01 -3.238196015143350426e+00 -9.783282410820220987e-01 -2.070600219775821094e-01 0.000000000000000000e+00
1.051855978264992508e+01 4.476351049307289998e+00 -2.396477847288867868e-01 -3.915824324050272143e-01 9.201430316161517409e-01 0.000000000000000000e+00
1.995794068295557278e+00 8.851505090050338254e+00 -2.221789654185957641e+00 -9.755103997941021454e-01 2.199533129860770930e-01 0.000000000000000000e+00
9.787148320443021632e+00 1.480567876362770319e+00 -3.097571460166008706e+00 -1.495749345129310792e-01 9.887503926499612295e-01 0.000000000000000000e+00
-2.745539696467220292e+00 -1.087773990858552864e+01 -6.544488604557979761e-01 9.695925326568630709e-01 -2.447249897661658569e-01 0.000000000000000000e+00
2.184544052606024245e+00 8.276384850611915311e+00 -3.249741631396148467e+00 -9.668860021757793577e-01 2.552086573698839067e-01 0.000000000000000000e+00
-3.203011728543915471e+00 8.925253077422180326e+00 1.821589253111768780e+00 -9.412256956481315218e-01 -3.377783146557680194e-01 0.000000000000000000e+00
-2.666749071166884200e+00 1.163225960737224796e+01 3.189095708231840298e+00 -9.747136524874443486e-01 -2.234575925194438040e-01 0.000000000000000000e+00
-9.169856364777132285e+00 -8.247433238494187302e-01 2.031333891280038273e+00 8.957911483120981067e-02 -9.959797097260854049e-01 0.000000000000000000e+00
2.892306602958097939e-01 1.153053475474005296e+01 -2.200255520066577208e+00 -9.996855476250561257e-01 2.507600186616771101e-02 0.000000000000000000e+00
2.844575015347774016e+00 1.078807769441581499e+01 3.133672171257957384e+00 -9.669507307251384853e-01 2.549633000063361021e-01 0.000000000000000000e+00
-8.355521930457174840e-01 -9.724674671328699560e+00 -1.757215680119907031e+00 9.963291172927875028e-01 -8.560543227257889909e-02 0.000000000000000000e+00
-1.048375463485717773e+01 4.051705598831176758e+00 3.083333492279052734e+00 -3.604893923197953765e-01 -9.327633129711443427e-01 0.000000000000000000e+00
5.301666578848066358e+00 -8.417219908447645338e+00 3.431772452732628764e+00 8.461451002716267045e-01 5.329525957215320853e-01 -0.000000000000000000e+00
3.782022040755958159e+00 -7.188649149617774015e+00 -3.228831418472656978e+00 8.849931789712894847e-01 4.656039874982721982e-01 -0.000000000000000000e+00
4.398667984940782816e+00 8.762723601813416252e+00 1.194304540397806980e+00 -8.937200454875670053e-01 4.486250999372429216e-01 0.000000000000000000e+00
-2.638612427738696642e+00 1.042093630946989258e+01 3.391178862215002088e+00 -9.694075054704069938e-01 -2.454568971075021255e-01 0.000000000000000000e+00
9.650757659558625079e+00 1.929128474510909408e+00 -1.498820564365327845e+00 -1.960161807510660270e-01 9.806006612703080938e-01 0.000000000000000000e+00
-8.127963137860980680e+00 -4.629204909133578738e+00 3.391666769981384277e+00 4.949017046067491488e-01 -8.689489644261819690e-01 0.000000000000000000e+00
3.704988514302999025e+00 -8.482913690995353306e+00 7.369907728949687264e-01 9.164065316419214291e-01 4.002487586039765177e-01 -0.000000000000000000e+00
4.102582586655250552e+00 9.046433508664087242e+00 1.304798191770691895e+00 -9.107238650310269801e-01 4.130157886364005382e-01 0.000000000000000000e+00
9.377891477790296193e+00 3.008905547149099746e+00 -1.111542942306012804e+00 -3.055106517048322146e-01 9.521886586674349617e-01 0.000000000000000000e+00
-8.627988077052865634e+00 3.319920883046385995e+00 2.046953967283251963e+00 -3.591170228270419429e-01 -9.332925393015000237e-01 0.000000000000000000e+00
9.360723939019795381e+00 -1.174216946888916091e+00 -1.720064650035545428e+00 1.244653922393645917e-01 9.922239495873405035e-01 -0.000000000000000000e+00
3.578518035974108003e+00 1.077267224521239797e+01 3.547783973831302173e+00 -9.490097800798503735e-01 3.152466293440647216e-01 0.000000000000000000e+00
9.064325809328021677e+00 -5.429270150008695062e+00 -1.250600585410787557e+00 5.138466485210616552e-01 8.578820558816186992e-01 -0.000000000000000000e+00
3.627098366940309404e+00 -1.023712775329518543e+01 -3.961071478723199313e-01 9.425852336077245042e-01 3.339656829446275843e-01 -0.000000000000000000e+00
1.043666001071286686e+01 -1.594317567607241637e+00 3.487791811532470199e+00 1.510094644677837106e-01 9.885323169432315149e-01 -0.000000000000000000e+00
1.090824922572396360e+01 -5.386347422100937976e+00 1.917364508345112739e+00 4.427510823064156886e-01 8.966445667690724486e-01 -0.000000000000000000e+00
-3.221452773700035355e-01 1.204839249453394956e+01 -1.138745073379664241e+00 -9.996427415193135380e-01 -2.672806255139405229e-02 0.000000000000000000e+00
-7.964507699012756348e+00 8.131194829940795898e+00 3.391666769981384277e+00 -7.143912735183172158e-01 -6.997464600273995972e-01 0.000000000000000000e+00
4.126418573435581827e+00 7.901999448870064668e+00 -2.425194528513992420e+00 -8.864175061355117347e-01 4.628866003855588995e-01 0.000000000000000000e+00
8.119292389767654328e+00 -5.644494599053273554e+00 2.214007986944546591e+00 5.708117132407329875e-01 8.210809874958616694e-01 -0.000000000000000000e+00
3.109600170924434082e+00 1.172213229108933952e+01 2.200890547755138371e+00 -9.665687780037955923e-01 2.564074830972163932e-01 0.000000000000000000e+00
-4.267564977426928863e+00 -9.887466233328858323e+00 1.812393487488330956e+00 9.181306994553752876e-01 -3.962777040379431015e-01 0.000000000000000000e+00
6.138768605184707461e+00 1.048810238428447406e+01 2.990220896424472308e+00 -8.630362950899618246e-01 5.051419140770168070e-01 0.000000000000000000e+00
-7.371961593627929688e+00 9.163053035736083984e+00 3.083333492279052734e+00 -7.791436876911552734e-01 -6.268453668417973690e-01 0.000000000000000000e+00
2.654719293746935271e+00 -9.685049703889344386e+00 -2.110310693968229678e+00 9.644257710731722888e-01 2.643538009749761275e-01 -0.000000000000000000e+00
-6.082243763909813694e+00 -8.768332060646667259e+00 1.982678624524394806e+00 8.216717170979652707e-01 -5.699610419329389499e-01 0.000000000000000000e+00
-3.699892696971979422e+00 -1.188068890704784053e+01 1.685792312646786417e+00 9.547728877469680020e-01 -2.973360604153414966e-01 0.000000000000000000e+00
-9.240619669312627238e+00 -1.888760815153350592e+00 7.258662699776168292e-01 2.002572257961502677e-01 -9.797433559440092976e-01 0.000000000000000000e+00
-7.764180403620103199e+00 4.352183788282848909e+00 2.051311688872758054e+00 -4.889662017763241608e-01 -8.723027304327525266e-01 0.000000000000000000e+00
5.597131052907824866e+00 7.232609562341272280e+00 -9.741318536474947720e-01 -7.908458848121814322e-01 6.120153482353511976e-01 0.000000000000000000e+00
-8.226847493626430197e-01 9.840420973981702346e+00 -2.376909484540486339e+00 -9.965235161936660813e-01 -8.331195396227469852e-02 0.000000000000000000e+00
9.444186088298458515e+00 2.750746725162984241e+00 -3.426959102710054772e+00 -2.796432488208678846e-01 9.601039805088354973e-01 0.000000000000000000e+00
-1.105155170649067031e+01 -2.411922444138640209e+00 -3.200149090436446908e+00 2.132240191747697688e-01 -9.770033355352260029e-01 0.000000000000000000e+00
-1.103983999384675840e+01 -1.587785915906424705e+00 2.750992359850007229e+00 1.423584568571397702e-01 -9.898151694944131718e-01 0.000000000000000000e+00
4.911492149550531039e+00 9.801730059103942239e+00 3.516835326858060107e+00 -8.940391248794296031e-01 4.479888873452376741e-01 0.000000000000000000e+00
-4.906026959419250488e+00 1.063213610649108887e+01 3.391666769981384277e+00 -9.079955399227183088e-01 -4.189798318301868885e-01 0.000000000000000000e+00
6.378852875213538276e+00 -9.185755608852893772e+00 1.952280789733119359e+00 8.213760013883522060e-01 5.703871179675097380e-01 -0.000000000000000000e+00
-1.123794103754793028e+01 -1.648074658091063682e+00 1.825992109510499173e+00 1.451006821819813553e-01 -9.894168949590075313e-01 0.000000000000000000e+00
-7.193207179282572916e+00 -7.669497904834552848e+00 1.864932142375211654e+00 7.293923199054919149e-01 -6.840956392660931806e-01 0.000000000000000000e+00
-6.766155123710632324e+00 9.356337070465087891e+00 3.391666769981384277e+00 -8.103173064926962876e-01 -5.859913504467638701e-01 0.000000000000000000e+00
-9.080681287428808091e+00 -2.503128832835171735e+00 2.418325322716832204e+00 2.657428584218314849e-01 -9.640439477522768641e-01 0.000000000000000000e+00
8.895321139450850012e+00 -5.149557059003153192e+00 1.316931593888286622e+00 5.010096220738951001e-01 8.654417129936439190e-01 -0.000000000000000000e+00
-7.771781206130981445e+00 8.757850646972656250e+00 3.391666769981384277e+00 -7.479592993118969746e-01 -6.637445943831528083e-01 0.000000000000000000e+00
-7.961754441261291504e+00 8.515630006790161133e+00 3.083333492279052734e+00 -7.304631069129291498e-01 -6.829521575038112191e-01 0.000000000000000000e+00
8.885042523599599562e+00 6.266815176913274499e+00 -2.150941354407078787e+00 -5.763774823305095607e-01 8.171835765985163702e-01 0.000000000000000000e+00
8.612592324080656780e+00 6.574856660443572309e+00 3.504215675460752522e+00 -6.067951384424200567e-01 7.948582640714284553e-01 0.000000000000000000e+00
-9.925403034871465024e+00 -4.243289097216482730e+00 -2.609108439791572032e+00 3.931008736125299885e-01 -9.194953524434290593e-01 0.000000000000000000e+00
-7.745108383923657414e+00 7.244088260930862333e+00 3.783561852034375006e-01 -6.830899558916363468e-01 -7.303342468760193329e-01 0.000000000000000000e+00
1.040295027171280218e+01 1.645555481971130440e+00 2.269279324137196241e+00 -1.562390306986142230e-01 9.877192745341957236e-01 0.000000000000000000e+00
-1.007793103363569109e+01 -2.993665760373175999e+00 -2.879363903946864589e+00 2.847538812194286284e-01 -9.586006609274123624e-01 0.000000000000000000e+00
8.813420124941844236e+00 1.752511124356878058e+00 -3.537841120129623818e+00 -1.950274691048471676e-01 9.807977805310115205e-01 0.000000000000000000e+00
-8.706647374631085512e+00 -3.297157634441147067e+00 1.264384875676320075e+00 3.541505193287419195e-01 -9.351884353750223866e-01 0.000000000000000000e+00
3.396846588774948827e-01 -1.001912512609196426e+01 -2.164326036287808286e+00 9.994257671075541527e-01 3.388415620134376666e-02 -0.000000000000000000e+00
-3.043904315517317549e+00 1.183118391042705753e+01 3.189095708231840298e+00 -9.684613377434472259e-01 -2.491638763869528927e-01 0.000000000000000000e+00
-9.692013676199561445e+00 -3.606114674741850656e+00 -6.907622983220743085e-02 3.487153651258037002e-01 -9.372286776049788548e-01 0.000000000000000000e+00
-7.336449507800443470e+00 5.735564482216137350e+00 2.794440208044477902e+00 -6.159082948347448516e-01 -7.878178548076687493e-01 0.000000000000000000e+00
2.723887688147964337e+00 -8.952448789978721067e+00 1.528768939392417536e+00 9.566968168377567583e-01 2.910862426369609790e-01 -0.000000000000000000e+00
-2.499267648837361300e+00 9.324339807621292664e+00 2.278260955239864494e+00 -9.659046304981616649e-01 -2.588981359187619846e-01 0.000000000000000000e+00
1.243876049681326990e+01 -1.012152463076803954e+00 1.400696771700350229e+00 8.110278935821958746e-02 9.967057427136237768e-01 -0.000000000000000000e+00
8.666491549181474241e+00 -4.492369630288282067e+00 -3.232249728180642823e+00 4.602068176859917537e-01 8.878117395908508014e-01 -0.000000000000000000e+00
3.734861071587220138e+00 -8.746219356651604215e+00 1.146417171346568287e+00 9.196589182027493647e-01 3.927180593888557336e-01 -0.000000000000000000e+00
-5.657910869744983806e+00 -9.500189789327071921e+00 -3.175470486907426171e+00 8.591721841482775623e-01 -5.116865817918998527e-01 0.000000000000000000e+00
-2.977963134479504337e+00 -1.170320997735050739e+01 2.035032509021940772e+00 9.691176743754998935e-01 -2.465987291391069092e-01 0.000000000000000000e+00
1.151726184325950308e+00 -9.964669105864716769e+00 -1.990555195913824349e+00 9.933867057375904697e-01 1.148166053487831156e-01 -0.000000000000000000e+00
2.287332764612693747e+00 -8.928469032086288948e+00 -9.098678106651159059e-01 9.687165284550094402e-01 2.481698762905664712e-01 -0.000000000000000000e+00
-9.029554456857837863e+00 -5.090539352516610272e+00 3.423919112472830317e+00 4.910975578995852020e-01 -8.711045796143328523e-01 0.000000000000000000e+00
3.921346409558744139e-01 9.482741089512717991e+00 -2.707399354587713525e+00 -9.991460821697173422e-01 4.131714516885789945e-02 0.000000000000000000e+00
1.089743747642125626e+01 4.792716733680244090e+00 1.907984845507395333e+00 -4.025868971799277385e-01 9.153817729335876896e-01 0.000000000000000000e+00
9.187139823975968511e+00 1.376244381440369979e+00 -2.627201324039090569e+00 -1.481481502755072899e-01 9.889651791493700994e-01 0.000000000000000000e+00
1.053738051908426954e+01 3.000895038090459099e+00 -7.171791490711723616e-02 -2.738953314102249847e-01 9.617595060261600048e-01 0.000000000000000000e+00
9.455160448983374266e+00 -3.760550190714758156e-01 -8.362474933931870469e-01 3.974104325462999437e-02 9.992100127005503207e-01 -0.000000000000000000e+00
-8.844338273650182103e+00 3.978292013040203301e+00 3.506249755447224281e+00 -4.102223081965829521e-01 -9.119855579217620578e-01 0.000000000000000000e+00
-8.389911126271123010e+00 -4.705207125082289998e+00 -2.842960821550592598e+00 4.891459296911631061e-01 -8.722019602515050929e-01 0.000000000000000000e+00
1.116010284742898229e+01 3.943232856481138526e+00 2.870930407572351406e+00 -3.331486330702737031e-01 9.428743226344687978e-01 0.000000000000000000e+00
-8.468555800582828752e+00 2.840402902924043183e+00 2.563025283250394359e+00 -3.179956342038801620e-01 -9.480921772840825712e-01 0.000000000000000000e+00
-1.039754295349121094e+01 4.363792598247528076e+00 3.391666769981384277e+00 -3.869930910570992255e-01 -9.220826142347938736e-01 0.000000000000000000e+00
-8.624389114481230578e+00 3.858009634338931182e+00 2.102510027747969801e+00 -4.083422739512267419e-01 -9.128288926761364275e-01 0.000000000000000000e+00
-1.228361834134453767e-01 -1.178448955207624493e+01 6.288724717640645778e-01 9.999456792580195819e-01 -1.042298101398712179e-02 0.000000000000000000e+00
6.564287473062345057e+00 -7.241153932142061045e+00 -1.872735949175811765e+00 7.408855422273318281e-01 6.716313075776862984e-01 -0.000000000000000000e+00
-1.095815556166897764e+01 -4.803661190114147495e+00 4.266607504565259612e-01 4.014829290952849350e-01 -9.158665064544454504e-01 0.000000000000000000e+00
-8.386992438320778120e+00 1.783321646876173894e+00 -7.901837512063476510e-01 -2.079799093569090762e-01 -9.781330979492985911e-01 0.000000000000000000e+00
-6.097852938230479580e+00 -8.777293457678677413e+00 -7.576885419132052268e-01 8.212599095903265756e-01 -5.705542576299723612e-01 0.000000000000000000e+00
7.276031994314492657e+00 -4.729545369974348823e+00 -3.466524134881543873e+00 5.449984419194039420e-01 8.384370568536567703e-01 -0.000000000000000000e+00
1.194306507611188017e+01 -2.795716617685969130e+00 2.189679756110143316e+00 2.279255231809843574e-01 9.736785690784587333e-01 -0.000000000000000000e+00
-7.721577638967147550e+00 7.108353954109224659e+00 -9.315239606870857614e-01 -6.772888431518317987e-01 -7.357172166954185633e-01 0.000000000000000000e+00
-9.536792278289794922e+00 5.714910387992858887e+00 3.391666769981384277e+00 -5.140218189525410653e-01 -8.577771095341266694e-01 0.000000000000000000e+00
-3.430379811164284698e-01 -1.031342526304279517e+01 1.648804572052968431e-01 9.994473013533865524e-01 -3.324292131316390619e-02 0.000000000000000000e+00
-1.034524148371061969e+01 2.776722124339323639e+00 -1.065771423649998884e+00 -2.592304186866311588e-01 -9.658155051703996019e-01 0.000000000000000000e+00
3.512688836455464259e+00 8.186815813206012038e+00 -2.485882888616749664e+00 -9.189802049842156206e-01 3.943036683156386224e-01 0.000000000000000000e+00
9.337508146910346696e+00 2.344852873390330661e+00 -3.264800175155962769e+00 -2.435596065927352893e-01 9.698859304250124769e-01 0.000000000000000000e+00
-7.974435073941085861e+00 4.759559189348894215e+00 4.501935619854974258e-02 -5.125069066074675606e-01 -8.586831025935263151e-01 0.000000000000000000e+00
-8.438735588078163374e+00 1.468159405417281071e+00 -6.360171272563430733e-01 -1.714038648629679917e-01 -9.852008501366803506e-01 0.000000000000000000e+00
1.105207466296760188e+01 7.336081893281510835e-01 2.364259936152345976e+00 -6.623167212941860615e-02 9.978042721931698056e-01 0.000000000000000000e+00
-1.002070728689432144e+00 1.215651607513427734e+01 3.083333492279052734e+00 -9.966198019650431839e-01 -8.215211702176745956e-02 0.000000000000000000e+00
2.056446849202396621e+00 -1.018304587785203630e+01 3.458606925639879481e+00 9.802117338867913920e-01 1.979519051452907352e-01 -0.000000000000000000e+00
-5.573953509330749512e+00 1.058674860000610352e+01 3.083333492279052734e+00 -8.848499871628044966e-01 -4.658760567124961560e-01 0.000000000000000000e+00
1.100462202381434196e+01 5.094118704300317768e-01 3.487471874082877399e+00 -4.624120239852458347e-02 9.989303034750416366e-01 0.000000000000000000e+00
8.902751749688151861e+00 -6.132736599267007094e+00 1.371908227790718859e+00 5.672882885238929029e-01 8.235192758543256053e-01 -0.000000000000000000e+00
-6.079450184651156164e+00 -9.051242012903514933e+00 3.502601132342018531e+00 8.301282633145374845e-01 -5.575724764067807593e-01 0.000000000000000000e+00
2.250530837868931044e+00 -1.145632935944993669e+01 2.841940370235216395e+00 9.812458976076098294e-01 1.927601837212137847e-01 -0.000000000000000000e+00
-3.811412183332850923e+00 9.821143023210296974e+00 -2.671794229306759583e+00 -9.322584392160113698e-01 -3.617930382283864321e-01 0.000000000000000000e+00
3.195824156721772002e+00 9.947867692876794621e+00 -3.275389141413060923e+00 -9.520760817252582608e-01 3.058612996223608049e-01 0.000000000000000000e+00
1.204327201365951439e+01 2.032182140919632118e+00 3.341032577509937873e+00 -1.663878635206146317e-01 9.860603829751225513e-01 0.000000000000000000e+00
-9.916435686923636084e+00 -6.204313059375476058e+00 -8.933687038579409823e-01 5.304009752272795808e-01 -8.477468994210186626e-01 0.000000000000000000e+00
-8.930317283181988586e+00 -3.754029656735381248e+00 -3.436636113569448536e+00 3.875217216808057863e-01 -9.218605725518065341e-01 0.000000000000000000e+00
-2.117982414151430071e+00 -1.063855697092143515e+01 2.269988954960294070e+00 9.807527772693123147e-01 -1.952536552245077994e-01 0.000000000000000000e+00
-7.775041602782936323e+00 -1.043032202482017290e+01 -6.075492864564459028e-01 8.017565217500082220e-01 -5.976508009124799070e-01 0.000000000000000000e+00
8.940384490498534120e+00 -7.660081425944833544e-01 -3.159186019144200053e+00 8.536678729862344495e-02 9.963495930778070164e-01 -0.000000000000000000e+00
-1.066814058965075418e+01 3.211321662351599215e+00 1.855688693961865976e+00 -2.882436563031612331e-01 -9.575570973059439606e-01 0.000000000000000000e+00
-8.291103849397691405e+00 5.025402200669784492e+00 -3.308584378223702327e+00 -5.183387376216957998e-01 -8.551753931684112908e-01 0.000000000000000000e+00
-8.986567019918075161e+00 -2.615454919070611783e+00 1.348691667988749510e+00 2.794458640928013660e-01 -9.601614494664050259e-01 0.000000000000000000e+00
1.143894618023301568e+01 4.674758460382157921e+00 -3.946561752531594358e-01 -3.782993506829726016e-01 9.256833158660912053e-01 0.000000000000000000e+00
-5.412829667255294908e+00 1.065867052966283346e+01 1.725683812505828474e+00 -8.916159582276392825e-01 -4.527924281984059274e-01 0.000000000000000000e+00
4.944771446611811783e+00 8.762098422804180942e+00 -8.024069849420464862e-02 -8.708912923426864738e-01 4.914756931137951868e-01 0.000000000000000000e+00
3.376048704441969583e+00 8.824837009406815369e+00 7.287093288484537412e-01 -9.339866343963988404e-01 3.573079438927821427e-01 0.000000000000000000e+00
-8.632805775776738244e+00 -4.665390745535170858e+00 -3.459627376955255684e+00 4.754388969667799891e-01 -8.797487455239773047e-01 0.000000000000000000e+00
3.128038944021738654e+00 -9.265059005523536229e+00 4.622929453586540061e-01 9.474587636869188367e-01 3.198779315814949675e-01 -0.000000000000000000e+00
5.544088132688292703e+00 8.519990739620988407e+00 1.137885365349539324e+00 -8.381695630126059227e-01 5.454097392229603214e-01 0.000000000000000000e+00
1.056250067908013435e+01 -1.133154159586259091e+00 2.197822871748237539e+00 1.066687811167164879e-01 9.942946098290355028e-01 -0.000000000000000000e+00
