-9.245367193410203299e+00 5.156418720149225088e+00 1.573337172030821574e+00 -4.870934288750499164e-01 -8.733498677773683383e-01 0.000000000000000000e+00
-9.855276151854589273e+00 -8.372326259358382927e+00 -2.184272624019059528e+00 6.474392557816462945e-01 -7.621170579857849958e-01 0.000000000000000000e+00
-7.899098832928415526e+00 -1.128284604790610501e+01 -2.047056807289591163e+00 8.191941727916765004e-01 -5.735162659107072569e-01 0.000000000000000000e+00
-8.328983429047891462e+00 6.099648562343261915e+00 2.187721102737886891e+00 -5.908424458707193239e-01 -8.067869633041340194e-01 0.000000000000000000e+00
1.037473512860655767e+01 -5.959146160002249282e+00 2.087697051562156680e+00 4.980736790237909051e-01 8.671347128697511897e-01 -0.000000000000000000e+00
5.548952467828218715e+00 -8.641098335584523227e+00 -3.498499564969790310e+00 8.414458799802184696e-01 5.403414023229349272e-01 -0.000000000000000000e+00
-8.841563099619058619e+00 -4.665665197850048962e+00 -2.470198891338053926e+00 4.667026539752065495e-01 -8.844142879739668173e-01 0.000000000000000000e+00
9.829910761457902879e+00 -5.147826915846944296e+00 -2.940830320036704304e+00 4.639239735066921222e-01 8.858750175988496789e-01 -0.000000000000000000e+00
-6.312784975571712920e+00 -1.009921073444632356e+01 -2.470450581155777758e+00 8.479689335886184676e-01 -5.300459297726766161e-01 0.000000000000000000e+00
-5.724078294261146560e+00 -1.023371476297473137e+01 1.753873687687818705e+00 8.727532006754096239e-01 -4.881617054940179945e-01 0.000000000000000000e+00
-9.883304945582651158e+00 -2.502790807217247337e+00 -8.349152740691480334e-02 2.454853107593849004e-01 -9.694003106051536367e-01 0.000000000000000000e+00
-7.903390079736709595e-01 -1.120358300209045410e+01 -3.083332538604736328e+00 9.975210615479153109e-01 -7.036854246266754931e-02 0.000000000000000000e+00
-9.001667190724996104e+00 1.049805567317795507e+00 3.436890525465095436e+00 -1.158383592614518343e-01 -9.932680778740524685e-01 0.000000000000000000e+00
-5.146374961575101104e+00 -1.125764191123068336e+01 -2.214864853525710942e+00 9.094737310322451584e-01 -4.157613889748393854e-01 0.000000000000000000e+00
-9.832040551020513774e+00 -5.087677628041901379e+00 1.932602854844710727e+00 4.595753771850512037e-01 -8.881387688223152388e-01 0.000000000000000000e+00
-9.849659533860819494e+00 -5.206115231100091556e+00 2.629576614638995391e+00 4.672979678928123048e-01 -8.840998864400154700e-01 0.000000000000000000e+00
9.107642596058706630e+00 1.025509005874472024e+01 6.495065303185967309e-01 -7.476986234760476524e-01 6.640382281555960997e-01 0.000000000000000000e+00
4.923459669511817793e+00 -8.482949099537950843e+00 3.434127605678668260e+00 8.648829536351446690e-01 5.019735814874606294e-01 -0.000000000000000000e+00
-6.845621001765072045e+00 7.421155453539172164e+00 -5.588797308212309911e-01 -7.350342480864151540e-01 -6.780299802663879438e-01 0.000000000000000000e+00
6.654618561409637145e+00 -8.219309560089955724e+00 -3.493743113953401647e+00 7.772036308123464465e-01 6.292491686542828200e-01 -0.000000000000000000e+00
1.098644812361954770e+01 3.415988604591934319e+00 2.287604825699379951e+00 -2.969066704064403650e-01 9.549065027887084778e-01 0.000000000000000000e+00
9.640005952459794969e+00 -4.842936700450063192e+00 -3.249163597739035847e+00 4.489134506180688100e-01 8.935752424134068006e-01 -0.000000000000000000e+00
-3.204566462347320233e+00 -1.206613606433223396e+01 -2.087326824690001636e+00 9.664950818021934564e-01 -2.566851317317996872e-01 0.000000000000000000e+00
7.098160330037121213e+00 1.040136928518337811e+01 -1.888615602796005488e+00 -8.259937601887142877e-01 5.636792599779674173e-01 0.000000000000000000e+00
-8.785743008005283627e+00 -5.083310572408776817e-01 2.068455587981139487e+00 5.776202845793056845e-02 -9.983303802191062504e-01 0.000000000000000000e+00
1.139504343657362284e+01 4.552015996154835875e+00 2.879388107287984333e+00 -3.709690125497530633e-01 9.286452453589915113e-01 0.000000000000000000e+00
6.841607037762646115e+00 1.081597895582241620e+01 -1.580282354895996333e+00 -8.451196142392695121e-01 5.345772513192721398e-01 0.000000000000000000e+00
-8.257950080769829171e+00 7.699566806080131443e+00 2.015182800089077464e+00 -6.819464259279290896e-01 -7.314021275359565699e-01 0.000000000000000000e+00
-3.097965409608939957e+00 1.364569545934240580e+01 1.853973113863388367e+00 -9.751842435505462259e-01 -2.213948760264095872e-01 0.000000000000000000e+00
2.650787695832264035e+00 1.054796477714286240e+01 -4.879369919743285766e-02 -9.698432870752838886e-01 2.437293550539376408e-01 0.000000000000000000e+00
7.567252313570286049e+00 -6.213635610151518662e+00 2.490608663635186293e+00 6.345978331953205931e-01 7.728425390102462433e-01 -0.000000000000000000e+00
9.713202614694655068e+00 6.083424558498551349e+00 -2.876617425984099974e+00 -5.307938487701646668e-01 8.475009676146426640e-01 0.000000000000000000e+00
-7.257009102728884109e+00 -9.825584246749228257e+00 3.331885555477064553e+00 8.043865909444551932e-01 -5.941062298181678525e-01 0.000000000000000000e+00
1.161861441733025124e+01 -4.598994882328851119e+00 2.110837771795389894e+00 3.680456841375258081e-01 9.298077082858265952e-01 -0.000000000000000000e+00
-7.782910148757196112e+00 7.346928286261672270e+00 -4.960458683680624148e-01 -6.864458310512547845e-01 -7.271809410541176799e-01 0.000000000000000000e+00
9.945972998946063015e+00 3.834988856494165321e-01 -2.587528417153270865e+00 -3.852957599078815631e-02 9.992574602043110543e-01 0.000000000000000000e+00
-8.988849374346809640e+00 -1.460923820559079989e+00 6.229611049575812798e-01 1.604212956414280689e-01 -9.870486350250049501e-01 0.000000000000000000e+00
-9.257695405389688048e+00 8.453807658260529267e-01 -2.117353408750816790e+00 -9.093817924155436772e-02 -9.958565396462640829e-01 0.000000000000000000e+00
-9.304153741076831352e+00 1.278224807562993837e+00 1.739199905934879054e+00 -1.361037696211455372e-01 -9.906945865880738555e-01 0.000000000000000000e+00
6.971946730187407404e+00 -9.733075000783152575e+00 2.178100169564189059e+00 8.129525035582138015e-01 5.823299983329319751e-01 -0.000000000000000000e+00
2.520940444101238853e+00 -1.064003608350914654e+01 1.514040073273077880e+00 9.730611714594915584e-01 2.305470810873170295e-01 -0.000000000000000000e+00
-8.485161511746536434e+00 9.276958586477684676e+00 -1.089513340217114878e+00 -7.378952760559586155e-01 -6.749152254722816657e-01 0.000000000000000000e+00
-4.772243190250405220e+00 1.105822329262420034e+01 -2.261963643507894695e+00 -9.181499251987711441e-01 -3.962331571909287753e-01 0.000000000000000000e+00
4.314757625390813089e+00 -1.169862207875708293e+01 2.776108587975402386e+00 9.382197690533425893e-01 3.460399759529129704e-01 -0.000000000000000000e+00
2.903979801415462525e+00 -1.067619473065389535e+01 -3.511729723619002819e+00 9.649404880040383103e-01 2.624687688288427911e-01 -0.000000000000000000e+00
-3.990618557514674647e-01 -1.279785774538040677e+01 -4.828387060785266915e-01 9.995141979740417293e-01 -3.116677795839999446e-02 0.000000000000000000e+00
3.692468234009463668e+00 1.083405642915055367e+01 -1.645795565897465229e+00 -9.465358034140413102e-01 3.225987799966631986e-01 0.000000000000000000e+00
-2.946007530280581044e+00 -1.344129616995500243e+01 1.375321673308272707e+00 9.768130971546218344e-01 -2.140938421048010076e-01 0.000000000000000000e+00
7.645076934079174436e+00 1.022719783742947186e+01 -1.580282354895996333e+00 -8.009508660792884482e-01 5.987300811942206646e-01 0.000000000000000000e+00
-6.097633478797880535e+00 1.346068405028064063e+01 3.391665816307067871e+00 -9.108974805017788778e-01 -4.126327422969626180e-01 0.000000000000000000e+00
1.033379859025808400e+01 2.467125533750533783e+00 -3.284311921413445301e+00 -2.322170451432293281e-01 9.726639933424837681e-01 0.000000000000000000e+00
-1.004893489181995392e+00 -1.303191423416137695e+01 -3.391665816307067871e+00 9.970402013316580492e-01 -7.688196751207088120e-02 0.000000000000000000e+00
-6.247620876905062737e+00 -1.094121687152992095e+01 -1.789484539019277287e+00 8.683970589838823084e-01 -4.958694868089219554e-01 0.000000000000000000e+00
-8.212159192881133052e+00 1.181015382208782327e+01 1.567339794859642588e+00 -8.210225062532506835e-01 -5.708958260712991839e-01 0.000000000000000000e+00
-8.782320294978188002e+00 -2.646295646927359080e+00 -3.179319370130055056e+00 2.885078785395556178e-01 -9.574775214179209737e-01 0.000000000000000000e+00
1.161866969572698238e+01 2.357128155905784173e+00 -2.001121256707234064e+00 -1.988238519219220068e-01 9.800352421759790378e-01 0.000000000000000000e+00
-5.129909697151786574e+00 -1.158975177574880355e+01 -3.469754901639164668e+00 9.144280891860747662e-01 -4.047484029709123576e-01 0.000000000000000000e+00
-3.917024339221372831e+00 -1.268154059804337841e+01 -3.439709969275343671e+00 9.554605385712261478e-01 -2.951188899972050916e-01 0.000000000000000000e+00
-1.060036653334989509e+01 6.165090842790711179e+00 1.277249792584527643e+00 -5.027476496927594241e-01 -8.644332251414255097e-01 0.000000000000000000e+00
-3.824335001409053802e-01 -1.291965770721435547e+01 -3.083332538604736328e+00 9.995621810458016343e-01 -2.958794049879242063e-02 0.000000000000000000e+00
3.521313194337439612e+00 -1.138466355105213523e+01 -1.674435563889116629e+00 9.553453948951554642e-01 2.954914151927595101e-01 -0.000000000000000000e+00
1.126692167206662631e+01 2.832628764457551185e+00 -3.191027750866732848e+00 -2.438233901155718031e-01 9.698196504673174401e-01 0.000000000000000000e+00
-4.570843443653510363e+00 -1.322746571282607597e+01 3.002847391899330365e+00 9.451603139895652372e-01 -3.266067679322437467e-01 0.000000000000000000e+00
-7.888079956173896790e-01 -1.280533194541931152e+01 -3.391665816307067871e+00 9.981081046527136014e-01 -6.148342399840835137e-02 0.000000000000000000e+00
6.026857736503190566e+00 9.280757092835923316e+00 -2.988388618948992992e+00 -8.386761977174380656e-01 5.446303658282570792e-01 0.000000000000000000e+00
-1.089599420106637240e+01 -3.988082092890878450e+00 4.385755832891391481e-01 3.437139965518188345e-01 -9.390743786167188301e-01 0.000000000000000000e+00
7.362854546188337679e+00 -6.531607681362999074e+00 -3.414249800220049647e+00 6.636170527826917853e-01 7.480724612335452051e-01 -0.000000000000000000e+00
-1.136764443470685571e+01 1.158462091266045713e+00 2.133240684443221458e+00 -1.013836254848888979e-01 -9.948474056273857169e-01 0.000000000000000000e+00
2.962557736936163977e+00 -9.675916164119762186e+00 -1.674435563889116629e+00 9.561849466961592769e-01 2.927632963874797212e-01 -0.000000000000000000e+00
-4.417585958734293605e+00 1.305390533141184761e+01 1.371816726279717402e+00 -9.472304882797863979e-01 -3.205532749376266977e-01 0.000000000000000000e+00
7.834367451875063004e+00 -9.276846674965302242e+00 3.117399723704863845e+00 7.640061332968494101e-01 6.452089803193976625e-01 -0.000000000000000000e+00
-7.121321039524605823e+00 6.809047539214104106e+00 -3.086241879292742851e+00 -6.910821336249383107e-01 -7.227762341031994664e-01 0.000000000000000000e+00
-1.077440625539611041e+01 -5.680618051007256142e+00 -4.848785601266071277e-01 4.663813765271056511e-01 -8.845837504887155145e-01 0.000000000000000000e+00
-8.996778536824889372e+00 7.813234640629413086e+00 1.552710037821838585e+00 -6.556982690651481649e-01 -7.550230327248094175e-01 0.000000000000000000e+00
9.702301058677566203e+00 6.654248134048978969e+00 6.841168325200416289e-01 -5.656001406745980731e-01 8.246796231682186340e-01 0.000000000000000000e+00
1.206399224536702786e+00 -1.102448680203667664e+01 -5.702078797484830819e-01 9.940658821252703614e-01 1.087796947711679868e-01 -0.000000000000000000e+00
-5.481609702110290527e+00 -1.260703587532043457e+01 -3.391665816307067871e+00 9.170623488934162015e-01 -3.987438378735026490e-01 0.000000000000000000e+00
1.073655405922788120e+01 2.416410990304795448e+00 -3.499361028569064391e+00 -2.195715539940948646e-01 9.755963984541038414e-01 0.000000000000000000e+00
7.874686107317847572e-01 -1.244450633710356513e+01 -4.692800027346679670e-01 9.980039137151383022e-01 6.315210375963052625e-02 -0.000000000000000000e+00
4.623541096975133158e+00 -1.169197663770178508e+01 2.159442062373061688e+00 9.299299407684615826e-01 3.677367336320448987e-01 -0.000000000000000000e+00
5.810756452470247524e+00 -9.572400406202199008e+00 -2.881833009565127224e+00 8.548294288639831651e-01 5.189090937226642497e-01 -0.000000000000000000e+00
4.643835858386058391e+00 1.056785500513863951e+01 -2.505068141070612597e+00 -9.155071886296506367e-01 4.023016126831128747e-01 0.000000000000000000e+00
-5.271932721138000488e+00 -1.290448999404907227e+01 -3.391665816307067871e+00 9.257272738048736294e-01 -3.781917695214907504e-01 0.000000000000000000e+00
-1.020425714481085855e+01 -2.312298175948518608e+00 -3.393634512362239786e+00 2.209984170368467504e-01 -9.752741664102501096e-01 0.000000000000000000e+00
-8.922452598076477059e+00 6.346604796428779061e+00 -1.966805680745911555e+00 -5.796299069021800809e-01 -8.148798506679191256e-01 0.000000000000000000e+00
-9.021866499465751588e+00 1.169355326327459199e-01 2.422013545039176208e+00 -1.296025733673513564e-02 -9.999160123379192688e-01 0.000000000000000000e+00
-1.025648745803152906e+01 -7.319258771878205394e-01 -1.951858747264737237e-01 7.118121841650325299e-02 -9.974633999023433395e-01 0.000000000000000000e+00
-3.981215023294094379e+00 1.079538283932309994e+01 1.173491990971018417e+00 -9.382311781508216875e-01 -3.460090408439079335e-01 0.000000000000000000e+00
-8.247245124186330045e+00 -6.310677049221085966e+00 2.051580804477721287e+00 6.076907125864200454e-01 -7.941737831458609564e-01 0.000000000000000000e+00
5.156217463403169887e+00 -8.728925779661061313e+00 -3.498499564969790310e+00 8.610035952625166855e-01 5.085988684071371946e-01 -0.000000000000000000e+00
-4.581486311033088121e+00 1.117211343118711753e+01 -2.815144477484688323e+00 -9.252251659923560467e-01 -3.794184921882664541e-01 0.000000000000000000e+00
2.115325558541646611e+00 9.546273235937215773e+00 -2.853411189962753891e+00 -9.763183102846564321e-01 2.163389863221918397e-01 0.000000000000000000e+00
-2.644230961799621582e+00 -1.140380167961120605e+01 -3.083332538604736328e+00 9.741551256861364916e-01 -2.258800369652609330e-01 0.000000000000000000e+00
6.282116632581812965e+00 -9.231668551978104986e+00 -8.105624683283138010e-01 8.267356511491854576e-01 5.625905821456067546e-01 -0.000000000000000000e+00
-7.475637301628024645e+00 6.506193401786976693e+00 -2.798308883362134569e+00 -6.565026723485106741e-01 -7.543236978905435430e-01 0.000000000000000000e+00
1.078471323786655134e+01 3.356503026775500054e+00 1.864123247592313515e+00 -2.971681725064904134e-01 9.548251553290544313e-01 0.000000000000000000e+00
-3.105797231197357178e+00 -1.135988664627075195e+01 -3.391665816307067871e+00 9.645988171620830665e-01 -2.637216751226762468e-01 0.000000000000000000e+00
-2.926216483116149902e+00 -1.156355667114257812e+01 -3.391665816307067871e+00 9.694416252779055609e-01 -2.453221049529234199e-01 0.000000000000000000e+00
3.181480309747192869e+00 1.015386439053529344e+01 -1.148412719391277287e-01 -9.542550209876277112e-01 2.989939044861995021e-01 0.000000000000000000e+00
9.279419026357468070e+00 -1.653081617108495660e+00 -1.831413957566809136e+00 1.753837279659536674e-01 9.845001513279539873e-01 -0.000000000000000000e+00
7.810532872269098092e+00 7.756003073945787030e+00 -2.492615311895741426e-01 -7.046254527519760780e-01 7.095794327163611470e-01 0.000000000000000000e+00
-3.791688397227073182e+00 -1.220680106356118699e+01 1.182476924425714948e+00 9.549894543204380248e-01 -2.966397514439896299e-01 0.000000000000000000e+00
4.706588467267899034e+00 9.603341849211219028e+00 5.183214724815246033e-01 -8.979551641633919390e-01 4.400869495364476691e-01 0.000000000000000000e+00
4.882747494036220104e+00 9.564822901591846005e+00 -2.925749995999378794e-01 -8.906587162040291439e-01 4.546724659024237725e-01 0.000000000000000000e+00
-8.162722028311140576e+00 6.947864280763305089e+00 8.672962289347609932e-01 -6.481655250970485005e-01 -7.614994760836460985e-01 0.000000000000000000e+00
-8.830234191068420557e+00 1.469814095574673463e+00 -3.147493473050264612e+00 -1.641933833128590980e-01 -9.864281691417153830e-01 0.000000000000000000e+00
6.420816637179960651e+00 -7.054172464339182547e+00 -2.307532989804431889e+00 7.395260078101032475e-01 6.731279846897254560e-01 -0.000000000000000000e+00
4.832792112548176533e+00 1.122532992266067708e+01 2.451775369245059455e+00 -9.184938972594729467e-01 3.954351535929814809e-01 0.000000000000000000e+00
-3.793952167034149170e+00 -1.140448522567749023e+01 -3.391665816307067871e+00 9.488714045154555965e-01 -3.156628861505049732e-01 0.000000000000000000e+00
-3.467308223247528076e+00 -1.129370951652526855e+01 -3.083332538604736328e+00 9.559615325328377766e-01 -2.934919902100708300e-01 0.000000000000000000e+00
7.081496977964905071e+00 1.115428857769479265e+01 3.385517091500219067e+00 -8.442330558836123044e-01 5.359762563336345487e-01 0.000000000000000000e+00
1.837625419968058837e+00 1.056967856736864775e+01 1.610578959830174739e+00 -9.852208725408002632e-01 1.712887395888715580e-01 0.000000000000000000e+00
-7.198603741967548153e+00 5.944537192886832244e+00 -3.083332538604736328e+00 -6.367454788187436598e-01 -7.710740529961366274e-01 0.000000000000000000e+00
5.059682676217148511e+00 1.155528572964742651e+01 -7.062252839823084383e-01 -9.160337125541642145e-01 4.011012808060265833e-01 0.000000000000000000e+00
1.061402184278474436e+01 4.693899053146789235e+00 -2.156528537949816471e+00 -4.044509225483979842e-01 9.145597034911115975e-01 0.000000000000000000e+00
-1.084967679526991446e+01 2.475623679819284106e+00 -2.536289926600690858e+00 -2.224573674930105383e-01 -9.749424186320337915e-01 0.000000000000000000e+00
1.144754568024533725e+01 1.919637508935777115e+00 -3.191027750866732848e+00 -1.653807513309645816e-01 9.862297942615635415e-01 0.000000000000000000e+00
4.490537303936047442e-01 9.696008437627991583e+00 -2.831099781691092776e+00 -9.989292632883308709e-01 4.626366766948669662e-02 0.000000000000000000e+00
7.695536059221374181e+00 -7.532018185602668225e+00 1.104754625900273624e+00 6.994733371631253194e-01 7.146586951810498523e-01 -0.000000000000000000e+00
-1.116866938306875001e+00 1.267477879562250642e+01 1.636929766206560499e+00 -9.961401365238596872e-01 -8.777715196009885923e-02 0.000000000000000000e+00
-9.440859426960653167e+00 4.706979053047009032e+00 -3.175183882031697991e+00 -4.461932713869660172e-01 -8.949366260071140999e-01 0.000000000000000000e+00
2.583488379272698587e+00 1.186483125317167620e+01 -8.787668494193566771e-01 -9.771048990713701032e-01 2.127581166741421559e-01 0.000000000000000000e+00
-4.598384566963884090e+00 1.314043504739239054e+01 3.045933632748993869e+00 -9.438755491307992962e-01 -3.303012984428491672e-01 0.000000000000000000e+00
3.464266878890511769e+00 9.990889200326391162e+00 -3.513034314223496324e+00 -9.448139942725196638e-01 3.276072591179983728e-01 0.000000000000000000e+00
5.882634806154614537e+00 8.381188835921244973e+00 -8.340252576424860287e-01 -8.185062336148680728e-01 5.744976462385231741e-01 0.000000000000000000e+00
-1.116101795789679940e+01 3.543466133664479045e+00 -4.754502908873909917e-01 -3.026013065838971672e-01 -9.531172274456686244e-01 0.000000000000000000e+00
1.243366779448902726e+01 3.493176635800324004e+00 2.128292564093821504e+00 -2.704734467034757839e-01 9.627274352735264440e-01 0.000000000000000000e+00
-1.026507193070391288e+01 6.929445474260521820e+00 1.204973224277395616e+00 -5.595018053088773868e-01 -8.288291318819018816e-01 0.000000000000000000e+00
-8.951062864425066934e+00 -2.619404939736809990e+00 -1.816468218239199128e+00 2.808574373128523982e-01 -9.597494985182629668e-01 0.000000000000000000e+00
-8.734984456580368928e+00 -2.201432571810098882e+00 -1.990114389165245079e+00 2.443830816711272114e-01 -9.696787660833475764e-01 0.000000000000000000e+00
1.129704812743274189e+01 -2.386222481014571350e+00 -1.696718975940822327e+00 2.066653129424000923e-01 9.784116967955871491e-01 -0.000000000000000000e+00
1.177557769858586845e+01 4.555116664153768369e+00 3.165340468419909570e+00 -3.607756384490007351e-01 9.326526356054091194e-01 0.000000000000000000e+00
-8.655724468344024203e+00 -2.346755031698818161e+00 -7.373706771099843849e-01 2.616747964464503085e-01 -9.651561018326045849e-01 0.000000000000000000e+00
2.778111342325225941e+00 1.130862763180387809e+01 -1.806710477357079903e+00 -9.711254074453909979e-01 2.385695768827695296e-01 0.000000000000000000e+00
1.147064465444448089e+01 1.124723743812369614e+00 -1.247459305767240512e+00 -9.758437803172376190e-02 9.952272550348295610e-01 0.000000000000000000e+00
-7.987776573528511115e+00 1.003757243427917700e+01 -7.047864577914758621e-01 -7.824740395807265880e-01 -6.226832078852133634e-01 0.000000000000000000e+00
4.080705009400844574e-01 -1.080164766311645508e+01 -3.391665816307067871e+00 9.992871538281835608e-01 3.775161180623131524e-02 -0.000000000000000000e+00
-6.419078914206599151e+00 9.722284156393081744e+00 3.461397723312542141e+00 -8.345158159815631027e-01 -5.509839860437200088e-01 0.000000000000000000e+00
-8.639103369658558407e+00 6.130960214290662513e+00 1.369815281049633349e+00 -5.787459782074844128e-01 -8.155078740935994830e-01 0.000000000000000000e+00
-3.399285759300149756e+00 -1.306099000930695730e+01 1.603169774502875899e+00 9.677606128760081194e-01 -2.518717851722449552e-01 0.000000000000000000e+00
-1.019893810683007551e+01 4.989196999133564070e+00 -2.549454768965425111e-01 -4.394268927088165189e-01 -8.982783566157400701e-01 0.000000000000000000e+00
4.933824854714218944e+00 -1.089358676146636995e+01 2.386196631086624276e+00 9.109265293154514831e-01 4.125686102811336187e-01 -0.000000000000000000e+00
8.244938636669603582e+00 7.784449056351270713e+00 -3.528231688276858957e+00 -6.865099094148756631e-01 7.271204468828939005e-01 0.000000000000000000e+00
-8.469305876522605914e+00 -5.018238627269617780e+00 -4.097454441785886026e-01 5.097565823844586452e-01 -8.603186774188484875e-01 0.000000000000000000e+00
4.640829784212048281e+00 -8.449081770215341791e+00 -7.926595933286658680e-01 8.764858351388202795e-01 4.814276485631096558e-01 -0.000000000000000000e+00
-7.388278118891570045e+00 1.240102330614100978e+01 2.107784896881446546e+00 -8.590883103748855332e-01 -5.118273878733183846e-01 0.000000000000000000e+00
6.736733494012209000e+00 -8.619635013626496090e+00 3.425733001407195388e+00 7.879071243164139648e-01 6.157940917639913581e-01 -0.000000000000000000e+00
7.428836045472475114e+00 -9.290420798347870601e+00 3.425733001407195388e+00 7.810123411721281439e-01 6.245155906275130508e-01 -0.000000000000000000e+00
7.756181988927464133e+00 -5.134448335826343524e+00 -1.659678160231107036e+00 5.519925635711865342e-01 8.338490329562717740e-01 -0.000000000000000000e+00
-8.304237536767161032e+00 8.271486283855407962e+00 -3.139846159827348160e+00 -7.057082620586240251e-01 -7.085025397711687267e-01 0.000000000000000000e+00
1.239305257952596584e+01 1.648412918987700870e-01 -2.623422687770339268e-01 -1.329992840466081780e-02 9.999115520406947066e-01 0.000000000000000000e+00
-7.600702555361346313e+00 9.636694142499260707e+00 -2.991388324434816059e-01 -7.851685401423371680e-01 -6.192821356786832876e-01 0.000000000000000000e+00
-7.419020160459453839e-02 -1.370641646241418243e+01 2.164820998452493761e+00 9.999853510763049291e-01 -5.412728775711298478e-03 0.000000000000000000e+00
7.486756668045448038e+00 9.663678505712152145e+00 3.460056691793656825e+00 -7.905177907091404110e-01 6.124390766209646397e-01 0.000000000000000000e+00
8.224683659068912078e+00 -5.764129946780026437e+00 -3.192262165221297021e+00 5.739200906603022512e-01 8.189113074909093459e-01 -0.000000000000000000e+00
-6.970053691535797569e+00 1.067564560458299994e+01 3.468064805043539423e+00 -8.373350073352003875e-01 -5.466901183403265474e-01 0.000000000000000000e+00
-5.838960138838862335e+00 9.113569814275772174e+00 2.844731167907879055e+00 -8.420080569988132035e-01 -5.394649496946797296e-01 0.000000000000000000e+00
7.141590489200296155e+00 -8.593376766934678557e+00 2.102899942872349104e-01 7.690813767524250499e-01 6.391508710254526493e-01 -0.000000000000000000e+00
1.071834050136884109e+01 3.097237312073178650e+00 3.198480868811793609e+00 -2.776081361472118036e-01 9.606943961244236441e-01 0.000000000000000000e+00
1.056108981632569588e+01 1.164193952928713083e+00 1.553349246494535318e+00 -1.095705449517593022e-01 9.939790217499435698e-01 0.000000000000000000e+00
-7.711931301923532267e+00 6.537111660721204309e+00 7.237604178117922338e-01 -6.466124574501108668e-01 -7.628186743062393971e-01 0.000000000000000000e+00
9.333212207668172056e+00 -6.233319656354832539e+00 -2.861344903605983703e+00 5.553895286992602820e-01 8.315903266700579444e-01 -0.000000000000000000e+00
2.907958267437772193e+00 1.276655168596797374e+01 2.757732018643987093e+00 -9.750259671998894317e-01 2.220908896959085388e-01 0.000000000000000000e+00
9.616783121789561406e+00 -7.125834380260908318e+00 2.165788153874259603e+00 5.953511548766197148e-01 8.034656199160454815e-01 -0.000000000000000000e+00
7.745394631937072560e-01 1.159791698242874602e+01 3.489603171508095070e+00 -9.977774712623530551e-01 6.663420924198407147e-02 0.000000000000000000e+00
1.175508566109639830e+01 -7.214371615291897966e-01 1.413399790156224523e+00 6.125708808750274237e-02 9.981220211772907636e-01 -0.000000000000000000e+00
4.453124561168711359e+00 -9.315510757564172906e+00 -1.350160119699898020e+00 9.022141136403167838e-01 4.312884106351778102e-01 -0.000000000000000000e+00
2.314499611866063233e+00 -1.039306697654060230e+01 -1.214278249351444128e+00 9.760889272837063313e-01 2.173715851580969305e-01 -0.000000000000000000e+00
-1.115314701143520271e+00 1.093717060429571575e+01 -2.777729702753505947e+00 -9.948407829024411564e-01 -1.014485912867106182e-01 0.000000000000000000e+00
1.293806605741061322e+00 1.015306063364736389e+01 3.743808206417040263e-01 -9.919783347917284777e-01 1.264080033219008026e-01 0.000000000000000000e+00
-2.827336776785189798e+00 1.229291065449303311e+01 -9.959992881673640497e-01 -9.745557524491722523e-01 -2.241452327582008630e-01 0.000000000000000000e+00
7.417891059730538750e+00 -6.635826710541039120e+00 -1.546816485424128196e+00 6.667260136291338624e-01 7.453029067098854155e-01 -0.000000000000000000e+00
-4.812196493148803711e+00 7.923872590065002441e+00 -3.083332538604736328e+00 -8.547265535369368283e-01 -5.190785284317487314e-01 0.000000000000000000e+00
1.115683633738886726e+01 5.496614629683547193e+00 -2.459684453251817782e-01 -4.419440597932843273e-01 8.970426121502981243e-01 0.000000000000000000e+00
-3.404897316060688350e+00 -1.273672201861377218e+01 -2.933468765405917278e+00 9.660754119056413902e-01 -2.582601372867011635e-01 0.000000000000000000e+00
-3.759977727598834196e+00 1.240088482189672270e+01 2.310403266236522590e+00 -9.569786896268797083e-01 -2.901582113262007878e-01 0.000000000000000000e+00
1.161231738610013409e+01 4.897251683630008401e+00 1.677519707815669392e+00 -3.885863476499510361e-01 9.214123129305746840e-01 0.000000000000000000e+00
1.081490588112999163e+01 -3.215714601007530593e+00 -6.582776824446314734e-01 2.850087294091139256e-01 9.585249209908955903e-01 -0.000000000000000000e+00
-4.998587084277635206e+00 9.697428358615008293e+00 3.083332538604736328e+00 -8.888647413717064572e-01 -4.581696973242660453e-01 0.000000000000000000e+00
-2.433854166340015723e+00 -1.157749942857843095e+01 -7.941846343614820114e-01 9.786096241363941850e-01 -2.057260400329170014e-01 0.000000000000000000e+00
-2.124616686176441505e+00 -1.158787421304803544e+01 -4.858513864614728006e-01 9.836039514281716967e-01 -1.803420825400629535e-01 0.000000000000000000e+00
-1.093680207571402185e+01 -1.167185714299354832e-01 3.402086537839074332e+00 1.067148554413268648e-02 -9.999430580769494981e-01 0.000000000000000000e+00
7.492068323098573401e+00 1.012462737270381652e+01 2.864302446231774546e+00 -8.038478189354716363e-01 5.948350056887080628e-01 0.000000000000000000e+00
-1.846216449886186606e+00 -1.286393394039057725e+01 -2.498161859917897853e+00 9.898575921506510555e-01 -1.420631805279448656e-01 0.000000000000000000e+00
-8.361899793786115254e+00 1.038096860172513125e+01 -3.713976072132824102e-01 -7.787739609913391092e-01 -6.273046450345001190e-01 0.000000000000000000e+00
8.265786208272240643e+00 6.075428029613627601e+00 -2.063332892019092313e+00 -5.922413734083409320e-01 8.057606068947538169e-01 0.000000000000000000e+00
-5.205586609378029195e+00 -1.273418930243155600e+01 2.023721965384957411e+00 9.256451122001801979e-01 -3.783928200427645883e-01 0.000000000000000000e+00
-6.478022883783548735e+00 -1.018842198221236117e+01 2.619093200360165241e+00 8.438684491749329775e-01 -5.365501285873426340e-01 0.000000000000000000e+00
-1.589424999353155732e+00 -1.309055391456744388e+01 -2.923377658936699319e+00 9.927093824080338580e-01 -1.205324938722348860e-01 0.000000000000000000e+00
1.174263016567249807e+01 -3.441408120781105917e-01 5.650434477541803613e-01 2.929438391840829756e-02 9.995708274408776628e-01 -0.000000000000000000e+00
1.057033464772057840e+01 -5.210134567042327802e+00 -1.657345600304963806e+00 4.421127419561871608e-01 8.969594881598509373e-01 -0.000000000000000000e+00
-2.332796996077935781e+00 1.089497103830165692e+01 3.135215295418792625e+00 -9.778362289863548051e-01 -2.093712236238426116e-01 0.000000000000000000e+00
3.280631254689555298e+00 1.249516934033700721e+01 3.107067197425672500e+00 -9.672186212713166364e-01 2.539451489318382826e-01 0.000000000000000000e+00
-2.635113153542587128e+00 1.196295865815061354e+01 3.263502160934574459e+00 -9.765885498920070518e-01 -2.151157925858235287e-01 0.000000000000000000e+00
5.482522249221801758e+00 -7.553723454475402832e+00 -3.391665816307067871e+00 8.093011418776977495e-01 5.873939578812967799e-01 -0.000000000000000000e+00
1.158192239748406216e+01 1.831227246395625979e-02 -2.727992897827759222e+00 -1.581106222791084284e-03 9.999987500507749871e-01 0.000000000000000000e+00
-8.185737598010399907e+00 -7.402374138062413955e+00 2.661634595174832363e+00 6.707254959702737551e-01 -7.417056754909122640e-01 0.000000000000000000e+00
-9.195835122814511209e+00 -2.763192005121746231e+00 -2.220654294445087551e+00 2.877722207163142532e-01 -9.576988822088084996e-01 0.000000000000000000e+00
-1.126482465126285781e+01 -1.274863426751399187e-01 -8.489123376155034428e-01 1.131648145748140669e-02 -9.999359665735715330e-01 0.000000000000000000e+00
-1.728852032551503770e+00 -1.194897905145902328e+01 1.316913697385340143e+00 9.896944790494988098e-01 -1.431951051500757743e-01 0.000000000000000000e+00
5.533572326207091052e+00 -8.644191641854936492e+00 3.866671745979939623e-03 8.422143450110550766e-01 5.391428354875910101e-01 -0.000000000000000000e+00
-8.231720612887718502e+00 -6.675957676782144468e+00 3.068536039377316449e+00 6.298924467306769026e-01 -7.766823710833415939e-01 0.000000000000000000e+00
5.568019108314159471e-02 1.103981338993059325e+01 1.144970014554268722e+00 -9.999872813888988077e-01 5.043516673862475860e-03 0.000000000000000000e+00
1.224917210315793525e+01 -1.178478686930164887e+00 -4.500468890339238137e-01 9.576664996941711139e-02 9.954038119043122634e-01 -0.000000000000000000e+00
-9.153073520325150980e+00 -2.523877879036657834e+00 -2.516196378270638689e+00 2.658205598358465149e-01 -9.640225256541244958e-01 0.000000000000000000e+00
-7.908208347109904501e+00 6.918922987756291221e+00 4.406525677432028831e-01 -6.584636791900333463e-01 -7.526125053355975369e-01 0.000000000000000000e+00
-5.847913108236481250e+00 1.165447119146943145e+01 -1.913485179025602001e+00 -8.937919804314941041e-01 -4.484817674291205480e-01 0.000000000000000000e+00
9.481651285852061406e+00 -6.949863825909101678e+00 2.782454679476600301e+00 5.911784997720948009e-01 8.065407499979250217e-01 -0.000000000000000000e+00
-7.872119117075245143e+00 1.132895308222884090e+01 -3.046729977862172589e-01 -8.212072399859798866e-01 -5.706300631710611304e-01 0.000000000000000000e+00
-8.869781882501094117e+00 -1.336791568867200519e+00 2.123031194820668155e+00 1.490299546897309868e-01 -9.888326818047513678e-01 0.000000000000000000e+00
4.158034075047908118e+00 1.008286548267685667e+01 1.178880192569640162e+00 -9.244756997633396534e-01 3.812409743811437379e-01 0.000000000000000000e+00
7.435942692538830556e+00 -7.327215077457246650e+00 -2.330116973717413664e+00 7.018800506443280129e-01 7.122951596827789000e-01 -0.000000000000000000e+00
-4.918327666903482331e+00 1.037981419170905717e+01 -9.384365265713652260e-01 -9.036848303640442337e-01 -4.281982337304868214e-01 0.000000000000000000e+00
4.651967573885583462e+00 1.204566588436042451e+01 1.775019005799047145e+00 -9.328512273182840708e-01 3.602618321315361194e-01 0.000000000000000000e+00
-1.163404822349548340e+01 -6.177907586097717285e-01 -3.083332538604736328e+00 5.302724862078572743e-02 -9.985930657198204274e-01 0.000000000000000000e+00
-9.664558370299770829e+00 -4.397125475927657234e+00 -9.125147995777813659e-01 4.141264061127986063e-01 -9.102193800178600691e-01 0.000000000000000000e+00
9.680714425538084811e+00 5.139801362902749027e+00 -3.077783010951590015e+00 -4.689361853458449692e-01 8.832320499581566287e-01 0.000000000000000000e+00
4.111783493712744431e+00 -9.398188453187566793e+00 7.121061607423778694e-01 9.161546127063069367e-01 4.008250561241861742e-01 -0.000000000000000000e+00
-9.654005959718730878e+00 7.854755733695892417e+00 -4.600740576345617727e-01 -6.311188539917996776e-01 -7.756861428026659011e-01 0.000000000000000000e+00
5.844484513605992859e+00 8.092271590203774068e+00 -2.155605840378199467e+00 -8.106760833269722744e-01 5.854949085360520167e-01 0.000000000000000000e+00
1.042704607509573123e+01 4.260059524246975649e+00 2.912528507679868817e+00 -3.782106956769955008e-01 9.257195415867178756e-01 0.000000000000000000e+00
-1.068688815019065608e+01 4.128694069376569686e+00 2.042599494720527709e+00 -3.603741480541741704e-01 -9.328078437782502119e-01 0.000000000000000000e+00
9.678542348992390520e-01 1.028230857228680506e+01 -3.447766337095755862e+00 -9.955991721324867205e-01 9.371386476454462988e-02 0.000000000000000000e+00
2.990552063557573526e+00 9.822823123726971417e+00 -1.321227805209699513e+00 -9.566468245390437053e-01 2.912504988826017382e-01 0.000000000000000000e+00
-9.248780488967895508e+00 -4.919787496328353882e-01 -3.391665816307067871e+00 5.311880571150044694e-02 -9.985881996497775193e-01 0.000000000000000000e+00
9.147198388830515725e+00 -7.992357063273240136e+00 3.113928677412165058e+00 6.579709633705954630e-01 7.530432997916989279e-01 -0.000000000000000000e+00
-7.396294271839404466e+00 -1.010585967595712376e+01 -1.980789634368491425e+00 8.069632392181259606e-01 -5.906016682592336586e-01 0.000000000000000000e+00
5.692644157654065395e+00 9.348518706132413314e+00 -3.151114740876744147e+00 -8.541075889255922426e-01 5.200963627441668180e-01 0.000000000000000000e+00
8.781580723962504109e+00 5.866797464269257745e+00 -1.534507082752438301e+00 -5.555134646080984728e-01 8.315075409394113715e-01 0.000000000000000000e+00
1.055589476660603587e+01 8.594939680224516820e+00 5.345410876960043911e-01 -6.314009599118527438e-01 7.754565286477321795e-01 0.000000000000000000e+00
-8.845557084081162813e+00 -9.560772207025834746e+00 -1.365099061139189773e+00 7.340289098032961590e-01 -6.791182220887499454e-01 0.000000000000000000e+00
-1.050684213638305664e+01 -7.198488950729370117e+00 -3.391665816307067871e+00 5.651970501650135370e-01 -8.249559348745647558e-01 0.000000000000000000e+00
-2.843254092229552388e-01 -1.128649165308907421e+01 -3.510394508457157059e+00 9.996828411956579785e-01 -2.518366571762163317e-02 0.000000000000000000e+00
-7.994739532470703125e+00 -6.637415289878845215e+00 -3.083332538604736328e+00 6.387709309663308632e-01 -7.693969701996538069e-01 0.000000000000000000e+00
1.031814034780775735e+01 4.719001287400461098e-01 -2.895861694855602408e+00 -4.568724124135396802e-02 9.989557928095490480e-01 0.000000000000000000e+00
-8.700488735372212901e+00 7.574528313215491693e-01 3.436890525465095436e+00 -8.673059893390930308e-02 -9.962318019459955876e-01 0.000000000000000000e+00
-8.458167244130757823e+00 7.693008265431640069e-01 3.128557247762763893e+00 -9.057971648959253774e-02 -9.958892081756208770e-01 0.000000000000000000e+00
-8.613478865509014426e+00 2.058817279099097064e+00 2.126547056174527661e+00 -2.324741291368952190e-01 -9.726025803389802826e-01 0.000000000000000000e+00
-8.087897658348083496e+00 -4.166876018047332764e+00 3.391665816307067871e+00 4.579898818022113405e-01 -8.889574051476238914e-01 0.000000000000000000e+00
-8.321190951394237700e+00 5.149937119868317481e+00 -2.600118243691387665e+00 -5.262603206168735559e-01 -8.503235119319149105e-01 0.000000000000000000e+00
-8.199390548108542731e+00 9.260085398398530288e+00 5.729289841305311715e-01 -7.486844579706112279e-01 -6.629265286540072522e-01 0.000000000000000000e+00
-9.924403516535429404e+00 3.231872956143508446e+00 -1.336126349819449999e+00 -3.096442437452787133e-01 -9.508524818894962261e-01 0.000000000000000000e+00
-8.633372095406432578e+00 -1.932881867769131290e+00 4.429502368407037816e-01 2.184763670918637712e-01 -9.758422398227807326e-01 0.000000000000000000e+00
-8.564258650116157057e+00 -5.686000484245090192e+00 -3.465078821880748450e+00 5.531162170781768195e-01 -8.331041053824709275e-01 0.000000000000000000e+00
5.035527744832794639e+00 9.805627172609142406e+00 -1.507172315458362721e+00 -8.895594356036561345e-01 4.568194506897721441e-01 0.000000000000000000e+00
-8.074864506721496582e+00 -6.417533278465270996e+00 -3.391665816307067871e+00 6.221877550599022033e-01 -7.828680587771603694e-01 0.000000000000000000e+00
-1.141959404945373535e+01 -4.086769580841064453e+00 -3.083332538604736328e+00 3.369463880436432413e-01 -9.415238348466505869e-01 0.000000000000000000e+00
1.025949427153326532e+01 7.803602640586681183e+00 -5.600693504820563051e-01 -6.053973038334424794e-01 7.959234287990263335e-01 0.000000000000000000e+00
-7.736407756805419922e+00 -7.250609278678894043e+00 -3.391665816307067871e+00 6.838270259912910820e-01 -7.296441588362824193e-01 0.000000000000000000e+00
-1.036177444458007812e+01 -7.511292934417724609e+00 -3.083332538604736328e+00 5.869166842915368720e-01 -8.096473341524869083e-01 0.000000000000000000e+00
-1.378712950981290319e+00 1.034753258301643974e+01 -1.563394229103203692e+00 -9.912399197928811745e-01 -1.320735454548053189e-01 0.000000000000000000e+00
1.016497298742987176e+01 8.267686669784373166e+00 -2.517361025820471498e-01 -6.309900181573339095e-01 7.757909492806727147e-01 0.000000000000000000e+00
7.958745412785893869e+00 9.810915683716215696e+00 3.880077159206626880e-01 -7.766028089519982913e-01 6.299905373320032753e-01 0.000000000000000000e+00
1.114766235590871979e+01 1.417223799507833837e+00 2.513908366698061614e-02 -1.261168291123178076e-01 9.920153957548515367e-01 0.000000000000000000e+00
-6.187112650746791509e+00 8.382753885298782848e+00 -1.410827599237076013e+00 -8.045813286990091129e-01 -5.938424753324212935e-01 0.000000000000000000e+00
7.076704579751904589e+00 8.627015972964288792e+00 -2.952602840004279638e+00 -7.731556611350546282e-01 6.342163066768441437e-01 0.000000000000000000e+00
8.266947236315980163e+00 7.266522233444042023e+00 6.732636411179803160e-01 -6.601981244539096849e-01 7.510914967349451299e-01 0.000000000000000000e+00
7.660710481678576045e+00 7.352343666009730327e+00 -3.311097823600165135e+00 -6.924368199194229634e-01 7.214785169496570338e-01 0.000000000000000000e+00
-6.514923590876828818e+00 -1.283318139596103435e+01 5.937104912761137498e-01 8.916775357088210230e-01 -4.526711525072525943e-01 0.000000000000000000e+00
-9.110961910424352439e+00 2.979774480149058213e+00 -2.945223771736659391e+00 -3.108510818256721153e-01 -9.504586287302617675e-01 0.000000000000000000e+00
-1.009886178432444304e+01 4.745177960076696899e-01 1.854501994854669267e+00 -4.693547166021803246e-02 -9.988979234636704563e-01 0.000000000000000000e+00
8.917352325719102524e+00 4.355909640934700455e+00 -2.782218100902158486e+00 -4.389104406512723267e-01 8.985308147678109369e-01 0.000000000000000000e+00
-1.077564239501953125e+01 -6.436553239822387695e+00 -3.083332538604736328e+00 5.128057235861653851e-01 -8.585046824900081086e-01 0.000000000000000000e+00
-1.091264867782592773e+01 -6.135775566101074219e+00 -3.391665816307067871e+00 4.901041180354399063e-01 -8.716638993813521363e-01 0.000000000000000000e+00
-7.695170462397831201e+00 6.538604517227289747e+00 1.659976652791594898e+00 -6.475167323568683519e-01 -7.620512327382482631e-01 0.000000000000000000e+00
-9.784861568589876768e+00 -7.374829984877364630e+00 -1.260913900176568569e+00 6.018883096793608001e-01 -7.985802794154900353e-01 0.000000000000000000e+00
-1.159343600273132324e+01 -1.818396508693695068e+00 -3.083332538604736328e+00 1.549526583081675679e-01 -9.879218965501436189e-01 0.000000000000000000e+00
9.367764091586440856e+00 3.837547702803072447e+00 -2.273600742367100302e+00 -3.790796443886722544e-01 9.253640490153904885e-01 0.000000000000000000e+00
-9.436153680023515733e+00 9.303730666180811681e+00 8.506724640096203771e-01 -7.020925720833630646e-01 -7.120856832048848561e-01 0.000000000000000000e+00
-1.133377575874328613e+01 -2.330592513084411621e+00 -3.391665816307067871e+00 2.014181235224740962e-01 -9.795053545114928983e-01 0.000000000000000000e+00
4.000192931851163536e+00 1.060842070868272202e+01 2.362198804970902177e+00 -9.356886499838482640e-01 3.528267992817489263e-01 0.000000000000000000e+00
1.812617681758687649e+00 -1.205904485982171082e+01 -5.702078797484830819e-01 9.888910628313120066e-01 1.486420729549950970e-01 -0.000000000000000000e+00
2.806989178854370159e+00 -1.023890211127966055e+01 6.825302464124558544e-01 9.644148140224212407e-01 2.643937716628342871e-01 -0.000000000000000000e+00
-7.625374441779201540e+00 6.311911802089389845e+00 -8.873912790782785276e-01 -6.376430829446096960e-01 -7.703319406417558080e-01 0.000000000000000000e+00
6.979301848788605156e+00 -9.161141255127111194e+00 2.731114522206051776e-01 7.954574741848412511e-01 6.060094114479349647e-01 -0.000000000000000000e+00
1.179817005076376324e+00 1.070971582455116788e+01 1.059960036771851355e+00 -9.939867078632488306e-01 1.095007972171000848e-01 0.000000000000000000e+00
5.678445762003820008e+00 8.295167350739967915e+00 -1.847272592478190312e+00 -8.251772022879734214e-01 5.648739548113304032e-01 0.000000000000000000e+00
-8.686882689766120436e+00 -5.244657534377841657e+00 -3.156745544178416907e+00 5.168508437996851557e-01 -8.560754670375464448e-01 0.000000000000000000e+00
-9.508709996025913824e+00 -6.102721266489946617e-01 -1.951858747264737237e-01 6.404855192709998923e-02 -9.979467836493295385e-01 0.000000000000000000e+00
-1.043229637339413429e+01 -5.873210216484350710e+00 -3.009592478800874549e+00 4.905812272507411032e-01 -8.713954667481101923e-01 0.000000000000000000e+00
3.533766414462327532e+00 1.075131904949360973e+01 1.164227064479986806e+00 -9.500005574286102261e-01 3.122482039745468896e-01 0.000000000000000000e+00
8.702143159167542663e+00 6.778809254127330597e+00 6.732636411179803160e-01 -6.145321597728372609e-01 7.888917698930139055e-01 0.000000000000000000e+00
6.624301379527013367e+00 9.890173101396095845e+00 -2.772272365980540165e+00 -8.308521144901918065e-01 5.564932738561871872e-01 0.000000000000000000e+00
8.428826656596436706e+00 6.991175835090465362e+00 3.649303932179711607e-01 -6.384125449303883482e-01 7.696943695230628046e-01 0.000000000000000000e+00
-1.419682756700098469e+00 1.167641715507332023e+01 -3.019575719350756637e-01 -9.926894408475134268e-01 -1.206966197946383323e-01 0.000000000000000000e+00
1.104923389392817867e+01 5.110809871614518940e+00 -9.063238378255249472e-01 -4.198139922045038275e-01 9.076101651861977482e-01 0.000000000000000000e+00
-5.519475298281028230e+00 -1.058219476385521496e+01 -2.463002779210722082e+00 8.866422153182597077e-01 -4.624560325215026912e-01 0.000000000000000000e+00
-1.152402973175048828e+01 -2.897178292274475098e+00 -3.083332538604736328e+00 2.438162439054135655e-01 -9.698214470756233441e-01 0.000000000000000000e+00
-1.157884526252746582e+01 1.073174774646759033e+00 -3.083332538604736328e+00 -9.228854591082694125e-02 -9.957323055388257460e-01 0.000000000000000000e+00
7.954251138900783502e+00 -7.643127510775940436e+00 -1.524232501511146420e+00 6.928641710140047705e-01 7.210681247462518151e-01 -0.000000000000000000e+00
7.293948870418182295e+00 1.085883013104438888e+01 2.130182575723455596e+00 -8.301142694684484624e-01 5.575933102404153630e-01 0.000000000000000000e+00
-3.325384933531057463e+00 -1.302189508748628732e+01 -3.193757890139973021e+00 9.689061926272761749e-01 -2.474283530408667164e-01 0.000000000000000000e+00
-9.174374593780552090e+00 1.042270527188650320e+01 5.183024584594992934e-01 -7.506280056673971801e-01 -6.607250540942019024e-01 0.000000000000000000e+00
2.276408575727146832e+00 1.340343927043055317e+01 -3.092693024981757466e-01 -9.858822806070560718e-01 1.674399258989031081e-01 0.000000000000000000e+00
-1.783142370997850445e+00 1.007457708923408113e+01 -6.302994951210107999e-01 -9.846951808992774335e-01 -1.742854001737936254e-01 0.000000000000000000e+00
-3.740317759412631560e+00 1.312670959155342310e+01 2.290722226961317443e+00 -9.617205328977593837e-01 -2.740321451998833924e-01 0.000000000000000000e+00
9.970209804884770932e+00 -8.797490740322537750e-01 -1.565961358683503057e+00 8.789625698943162591e-02 9.961296341376698615e-01 -0.000000000000000000e+00
-9.229682922363281250e+00 -1.478413254022598267e+00 -3.391665816307067871e+00 1.581640723024941020e-01 -9.874128448793298984e-01 0.000000000000000000e+00
-8.902983994986563232e+00 -5.730996231364220428e+00 1.217711250515515875e+00 5.412686847814254243e-01 -8.408496957690989593e-01 0.000000000000000000e+00
-7.969864118167260258e+00 -7.431719054406102920e+00 2.044968069572491665e+00 6.819836607381809523e-01 -7.313674086846840838e-01 0.000000000000000000e+00
-8.965559482574462891e+00 -1.199229001998901367e+00 -3.391665816307067871e+00 1.325787619069464796e-01 -9.911724733320741443e-01 0.000000000000000000e+00
-1.158600068092346191e+01 -2.615903794765472412e+00 -3.391665816307067871e+00 2.202376476902924984e-01 -9.754462458484560727e-01 0.000000000000000000e+00
-1.045335166247045144e+01 -4.714501467295456827e+00 6.666015969972045596e-01 4.111254952713073174e-01 -9.115787553129582887e-01 0.000000000000000000e+00
-1.164246201515197754e+01 -1.492811247706413269e+00 -3.391665816307067871e+00 1.271800662893670664e-01 -9.918796452889999671e-01 0.000000000000000000e+00
-8.674657821655273438e+00 3.157361328601837158e+00 3.391665816307067871e+00 -3.420243606307390993e-01 -9.396910858016768175e-01 0.000000000000000000e+00
1.224572939526908488e+00 -1.160549820033707391e+01 2.195469837647810341e+00 9.944791795569137838e-01 1.049340813454219118e-01 -0.000000000000000000e+00
6.107364636135228508e+00 1.191202796291744193e+01 -6.859096596645697375e-01 -8.898589429307272036e-01 4.562357523103697243e-01 0.000000000000000000e+00
-6.342751924215101589e+00 -1.121523693455704596e+01 -2.184999146919232693e+00 8.704396344394053076e-01 -4.922751697953033356e-01 0.000000000000000000e+00
6.656403193006408259e-01 1.092938148228121698e+01 -3.193658732720970228e+00 -9.981505102084899939e-01 6.079110930498869692e-02 0.000000000000000000e+00
-7.239661148045793304e+00 -1.057216167467408852e+01 -1.162044909845471041e+00 8.250861764360151174e-01 -5.650069038995866322e-01 0.000000000000000000e+00
9.917444117005292270e+00 2.051554255128639870e+00 -2.438884821876128761e+00 -2.025742871350149910e-01 9.792668983437256003e-01 0.000000000000000000e+00
