-3.434517671254426197e-01 1.139349472681804798e+01 -1.691127247004708956e+00 9.797256214192313628e-01 1.024017553379130002e-01 1.721963624424601991e-01
-2.183868203681516906e+00 -8.705036375051326658e+00 -2.848831343712009634e+00 6.524644133361552356e-01 -3.597940171536396226e-01 6.669621087815659211e-01
8.131775836539024027e+00 4.748319854774781135e+00 -6.234145807583170162e-01 -5.095825858045718304e-01 7.237803351230387428e-01 4.652608029201555362e-01
-2.117662016797480895e+00 9.141180008303026128e+00 -2.736510259032150394e+00 -5.800391957716293234e-01 -3.528869718130340782e-01 -7.341834351803562253e-01
-8.194125093305599350e+00 4.187658217627941326e+00 3.484503644950681878e+00 -3.426446542314738886e-01 -9.040385003180396728e-01 2.555563164339781923e-01
9.727602046648899936e-01 -9.639004925308306326e+00 6.714572316693069309e-01 -7.323590790425370534e-01 -3.583406742575135362e-01 -5.790009849012672793e-01
2.415207071883124001e+00 -1.036310269004031426e+01 2.126556800985005546e-01 -7.088224147574406775e-01 -5.844107149172853566e-01 -3.950125322408116757e-01
9.004561166893701341e+00 -4.820982782844378534e+00 -2.283421372363513058e+00 5.829384290261742096e-01 7.989169447963343496e-01 1.480354798073315326e-01
1.802580710939590158e+00 -9.322932222900469412e+00 3.631239852826969594e-01 -8.036528619475928892e-01 -4.210034595243269395e-01 -4.205926349236178696e-01
6.007153148264598563e+00 -7.322799025576046006e+00 -4.439759218464645052e-02 5.962168389064051999e-01 5.312743148462665266e-01 6.018912554515837288e-01
1.001993026938355591e+01 -1.385051987762259573e+00 -3.233574251958398982e+00 5.543943925327394773e-01 8.046298256023861617e-01 2.126445420868551817e-01
2.719256975382813302e+00 -1.119753548035125945e+01 2.915227791688750791e+00 -4.617445565603028879e-01 -8.593818056833806285e-01 -2.196699263606683716e-01
-1.008912378254646747e+01 1.116670446674601802e+00 -2.607520277626195426e+00 5.172168312882275548e-02 2.833093180506177089e-01 9.576328616959715045e-01
4.411954221681868127e+00 9.311608230791687646e+00 -3.180355042814384525e+00 9.297826311750004846e-01 -3.663595147788364370e-01 -3.584640423122308073e-02
7.117794569125527104e+00 -6.766194290588430249e+00 2.918531483326063380e-01 -6.728197221388011462e-01 -3.847215157807565844e-01 -6.319042465409006049e-01
2.885743541921383937e-01 9.624563894577361722e+00 -1.868744102997062839e+00 -5.540006058967307245e-01 -8.882356084638794169e-02 8.277642802782826381e-01
-5.632151433920093986e+00 -9.771440721819329767e+00 3.135536660577662005e+00 6.344218823396379214e-01 -4.136478550684958289e-01 -6.529964220467544544e-01
-7.562516953764256478e+00 5.396479955447820664e+00 -3.470515690468559455e+00 -5.831290837460948451e-01 -7.507698096220009054e-01 3.103307342974336303e-01
-8.526370571487547068e+00 -5.039680837526809398e+00 -3.429388837163515280e+00 1.125475270830082197e-01 -2.140480270806502661e-01 9.703177295352182208e-01
-8.794974687104730293e+00 -7.885658814247573645e+00 1.611814894588164959e+00 1.544390210968699939e-01 -3.632571950864528221e-01 9.187996511648026665e-01
4.355321764945983887e+00 8.458222150802612305e+00 -3.402628719806671143e+00 -5.396099108902012720e-01 4.542466264522871527e-02 8.406888509387026032e-01
2.238370642066001892e+00 8.997028708457946777e+00 -3.557519346475601196e+00 -8.723410607206780742e-01 -6.964200896266758978e-03 4.888482112952841629e-01
-6.020212833161254551e+00 -7.845186808425138381e+00 1.003212944186904876e+00 -4.407042815371670641e-01 4.424673547789306216e-01 -7.810264887887897745e-01
-3.299260922206585178e+00 9.751702173394008355e+00 2.930789635075025323e+00 8.325278815664067800e-01 2.538635213063941687e-01 -4.923927690009963776e-01
-8.821380353447835887e+00 -1.074601778529776563e+00 -2.338226327423258422e+00 1.360823269856657192e-01 -9.747762461088678165e-01 -1.768979092699231037e-01
-6.241855722552838159e+00 -8.789817181343089203e+00 7.935952940372933417e-01 -5.376227685113108556e-01 -1.590473764019438227e-02 8.430354666909513073e-01
-6.809285048644952987e-01 1.135615503947063587e+01 -2.000908500342569063e+00 9.740120896215892499e-01 1.274289150876841692e-01 1.872493547934439007e-01
-3.514869451113574073e+00 -8.515817223423987059e+00 -1.577614415127633896e+00 -9.147967480531304929e-01 2.750587569371908403e-01 2.957863924922587984e-01
4.711686134338378906e+00 8.017747998237609863e+00 -3.092847466468811035e+00 -3.530796904757242394e-01 1.894303702099352227e-02 9.354014611502315946e-01
4.494780659675598145e+00 8.139769196510314941e+00 -3.402628719806671143e+00 -4.919579487303177290e-01 4.655247363909303937e-02 8.693734777868137309e-01
-1.130947775978850522e+01 1.715293615802822025e+00 1.286998745699901581e-01 -1.823044810269452282e-02 -1.280003170116308930e-01 9.916065598849660434e-01
-1.634068280242907623e+00 -9.031202338732599699e+00 -2.598367050824070379e+00 -9.042545690478672737e-01 4.336666355417949370e-02 -4.247858364496567840e-01
2.753901920896403954e+00 9.470975291172855748e+00 7.350315804885052540e-01 -8.238376606043119610e-01 9.889087602590863890e-02 5.581326935495205532e-01
-2.259598061386812962e+00 -9.251602463300223178e+00 -1.930247987437542001e+00 -3.728995248432574461e-01 3.067515331075412188e-01 -8.756994012261546390e-01
-6.556558762589359546e+00 -9.662705956517132933e+00 -2.338808145796232196e+00 -3.594672040987196282e-01 5.826382477107133750e-01 7.289142620926268856e-01
-2.179292349799711648e+00 -9.992995350979311908e+00 2.021316592223485920e+00 -6.450220550261197561e-01 -5.188101239018774735e-02 -7.624007535956731640e-01
8.622816180479432546e+00 -3.784277594267398737e+00 2.841729955548125020e+00 4.787355403811318633e-01 7.409101910592164053e-01 4.710248094958283116e-01
1.522133256931601064e+00 1.121970540108026704e+01 2.132144182827875767e+00 7.783234317645876255e-01 -1.461490389617728647e-01 -6.106169781268333541e-01
5.101651307231234611e+00 1.123221632916437684e+01 2.115379748228409351e+00 -9.028179571928827141e-01 4.187677638458752738e-01 -9.774096446012446593e-02
4.301935788279818595e+00 1.149792835194574891e+01 2.115379748228409351e+00 -9.402472302913963409e-01 3.364036541141242620e-01 -5.260919528012489993e-02
8.174175684718818502e+00 8.580916202082782718e+00 1.520943548770224973e+00 -7.571833822243031475e-01 6.404409214177385623e-01 -1.284863878275157578e-01
3.966816772344160302e+00 9.078361442907265655e+00 2.417403986774171010e+00 -7.550149820375920973e-01 3.391414071875174518e-01 5.611911286091798567e-01
-1.065852473509965748e+01 4.059369080654853690e+00 -2.428855481777479675e+00 -4.590635340611951692e-02 4.957069968217412970e-01 8.672757231808824185e-01
1.759937058497676343e+00 9.323686889075126771e+00 7.826283500398427684e-01 -7.470530799062455873e-01 -2.377890360995264449e-02 6.643389643440325010e-01
-1.108807932916312922e+01 4.494831370586171104e+00 2.228622974253056555e+00 -3.161310891036149817e-01 -9.016023642453628861e-01 -2.952529615250865658e-01
8.179651527032858027e+00 8.654103448629516748e+00 2.349053724456089842e+00 -7.589531399097548814e-01 6.493271944497012171e-01 -4.862433515436256209e-02
1.047654764713726294e+01 -2.608926467488299483e+00 3.440803175185783935e+00 4.668596314507420519e-01 5.704069440372488975e-01 6.757795518627093267e-01
-2.719022278237757995e+00 8.964472263704637456e+00 -2.736510259032150394e+00 -6.087515471679247892e-01 -7.375836301218216540e-02 -7.899248430745932081e-01
-1.068441813016757003e+01 5.321767504517174174e+00 1.865760931695463753e+00 1.217137987258212067e-02 4.440249300532385646e-01 8.959317602380293399e-01
1.491048668633128405e-01 9.263077800638480852e+00 -4.549288238482831481e-01 -6.610801268516146578e-01 -1.508039849656172826e-01 7.350042340016437192e-01
6.163642651587732502e+00 -9.326566020917281818e+00 6.835051069784294775e-01 -5.907811424163587066e-01 -7.722574091175630207e-01 2.336581602004326463e-01
-1.019700548469816681e+01 2.168653318487088200e+00 1.167217877830171835e+00 2.811771629404198336e-01 9.206233055091621598e-01 2.709098233622403429e-01
4.452666927550892773e+00 -8.316446187888894670e+00 -1.743336729364911020e-01 3.938168696573023930e-01 4.192339588185793886e-01 8.180166018771409808e-01
7.557785051144850108e+00 6.495393963761108225e+00 2.316670039048918550e+00 -3.680206519553890776e-01 5.706411156387809491e-01 7.341181899918145515e-01
1.829928756868937967e+00 9.560930474652037603e+00 -6.068850483119402339e-01 -7.940581155257545598e-01 -6.907857565890217384e-03 6.078025918598379818e-01
9.648973261650640509e+00 -4.388891073047016533e+00 -3.098967219331165257e+00 6.430314382326757228e-01 7.227900561015697667e-01 2.531503589669704679e-01
-2.250297939451622042e+00 1.081790520734729277e+01 3.435148596139703248e+00 9.882171216304506123e-01 -7.872477466092105136e-03 1.528559603514789145e-01
8.038210773940337006e+00 5.523393926951870370e+00 -1.834115403987712778e+00 -4.043709968158979984e-01 6.573414174222510509e-01 6.359137975193043246e-01
-1.220575518773778789e+00 1.050163652665049518e+01 -1.123939723855484463e+00 9.827964820662633549e-01 1.708056593089022357e-01 -7.026024186001803007e-02
6.684399298235426556e+00 7.715184463589601194e+00 -3.322853197856138863e+00 -5.528367869673925794e-01 5.335199862990697151e-01 6.400999228206564196e-01
7.599271526529920884e+00 9.484512872654022431e+00 1.996600913932036425e+00 -5.541367646898147648e-01 8.275424749835593730e-01 9.003276135490888288e-02
3.217192848000371086e+00 -1.061247358141552510e+01 3.409226282562393351e+00 9.291707900920022078e-01 3.680747621789892121e-01 3.409710085454469713e-02
4.354321159558974585e+00 -7.027152249498908709e+00 -2.064348085495554486e+00 4.654132698046652972e-01 3.831642727443334007e-01 7.978568971827190159e-01
4.325305082531951228e+00 -1.009658186750917075e+01 7.507499970993338767e-01 -6.731960485444402620e-01 -6.781507066881514723e-01 2.948197741714630449e-01
1.128731370670227108e+01 1.504532362125678757e+00 -2.816606040493322638e+00 2.093865182102294109e-01 9.622816093027207751e-01 1.736991375613690380e-01
9.367776768026150336e+00 -2.502403919746208238e+00 -1.095557203221861453e+00 3.278014655083328899e-01 9.372439656533192442e-01 -1.188273876554938602e-01
-5.034575529611249323e+00 8.387826319564419819e+00 9.781840472564440336e-01 -8.108678131012470036e-01 -5.845914115428836322e-01 -2.731796527379394546e-02
8.120487429366871623e+00 7.544039176100584498e+00 -3.223239153029543669e+00 -5.785820840457541747e-01 7.246823432102116325e-01 3.742703213729738909e-01
2.589015851116030831e+00 9.230597313037986140e+00 -3.077442753025175115e+00 -6.898656605275638176e-01 -6.374331386729459314e-02 7.211256203755926908e-01
1.123974767888399384e+01 3.406102544360625650e+00 -9.867902140099438224e-01 2.619815974038501305e-01 -9.439924464511540991e-01 2.006088324697891112e-01
9.082080063086587884e+00 2.154253960916605148e+00 -2.908550527191994473e+00 6.844296975895089452e-02 4.887641616562888314e-01 8.697270572834908675e-01
8.738147497177124023e+00 1.339938521385192871e+00 -3.402628719806671143e+00 2.598691535748051673e-01 4.234490201564563572e-01 8.678473081993464122e-01
-2.538973176006928512e+00 -1.091852741075716260e+01 3.486208293818678250e+00 9.292229303609395030e-01 -2.535824302018311327e-01 2.687762950566177089e-01
-6.856932580695513479e+00 5.972713570239647218e+00 3.157933005171718488e+00 -4.992597831832967237e-01 -7.914575396071091840e-01 3.526111624648727294e-01
6.930693872313890225e+00 7.422397660400819497e+00 -1.125153683598161480e+00 -7.390213946689218050e-01 6.045332893677052288e-01 2.972993109105098175e-01
8.718729397859641850e+00 4.398470023402233586e+00 1.609827074421729121e-01 -4.471297862199736239e-01 7.084298552988277375e-01 5.460788353307263199e-01
-4.247963233192379562e+00 -8.761760652001177263e+00 -9.306237025993173706e-01 -7.849261611006606021e-01 3.781930147479401483e-01 -4.907758808413921203e-01
1.281869072610646088e+00 -9.600779769279071729e+00 -2.434351001537992942e-01 -7.493862543391688336e-01 -4.425527295100535330e-01 4.925112419130268093e-01
-3.763120881429045550e+00 1.061309301033791108e+01 -1.191041692584782485e-01 9.280300321253914797e-01 2.175065615803063457e-01 3.024089204088681870e-01
7.128440856933593750e+00 5.752866268157958984e+00 -3.092847466468811035e+00 -2.990647395981714807e-01 5.433163496997117647e-01 7.844537116223354589e-01
-1.034390808308993037e+01 -4.584154433060319889e+00 -3.452608962192560416e-02 3.408860883853572221e-01 -6.233781213017179912e-01 7.037019202955688835e-01
5.018098627666651268e+00 -9.983680673645421777e+00 4.100018154257693559e-01 -6.299568219926980905e-01 -7.316841192933177807e-01 2.603704130634319491e-01
8.154111951157981153e+00 3.873670909072568058e+00 -3.187493556694047214e+00 -3.934714277840257318e-02 3.917533932484950632e-01 9.192285250325220591e-01
6.887840191228728592e+00 8.993671400904236890e+00 -1.270138320367133922e+00 -8.448702384919117847e-01 5.322564311928450476e-01 -5.382723812788484802e-02
7.961704336738125498e+00 6.364273458499778435e+00 2.128773040134476879e+00 -4.111379742146326621e-01 5.143424209350023757e-01 7.526070954923351763e-01
-3.956854721756862148e+00 -8.317041537094700843e+00 -2.174369601307491795e+00 5.848825174707091012e-02 -2.385970829983038166e-01 9.693557429510962775e-01
-1.045992757238763815e+01 -1.666312062013014961e+00 -1.024312689140686183e+00 1.957602782058099344e-01 -9.802143215810815713e-01 2.928817584152227163e-02
-1.163705971209644119e+01 -4.492202001210718887e-01 -2.053641457265859671e+00 -1.533808439391682113e-02 8.658251249893747503e-02 9.961266042509336893e-01
-8.609917220272299332e+00 -6.688751267164383840e+00 -8.048031526989865014e-01 3.236057474555619762e-01 -5.828663078082179094e-01 7.453497081476201380e-01
-2.288159989933282290e+00 -9.629828624268112591e+00 -2.288632238934866336e+00 9.863004117781942748e-01 -8.306261230904003756e-02 -1.425205254079652262e-01
-5.766635695763485892e+00 -1.053386766956176146e+01 3.406446519867923683e+00 -6.711288745495848085e-01 2.239142021427026896e-01 7.067166786093309616e-01
-5.394941822337799842e+00 7.731911648597394660e+00 3.522576384653393067e+00 -5.948023865892050344e-01 -7.353887463030990279e-01 3.246744719230977849e-01
5.356838419744828883e+00 -7.016676227539604405e+00 -9.172718308366210049e-01 4.948823136425449798e-01 4.341995301876216962e-01 7.527033038512918051e-01
7.282581676028422102e+00 8.141947534715585633e+00 3.008668465492857713e+00 -4.937923264122578426e-01 6.313097105530561803e-01 5.980110264349535187e-01
8.143857917162184989e+00 8.104180334077769388e+00 3.123054918659232904e+00 -7.465417168164799611e-01 6.652747887547417749e-01 9.215231957813787428e-03
-5.829345980950253470e+00 -1.011082871005858763e+01 3.406446519867923683e+00 8.092609910317523081e-01 -5.635491606629795536e-01 1.658583489317233262e-01
1.064366531372070312e+01 3.906710207462310791e+00 -3.402628719806671143e+00 -1.721147683219537497e-02 -9.973220332465932980e-01 7.108113016923525707e-02
6.482859339003185895e+00 7.938394728210298901e+00 -2.673540644901241325e+00 -5.176456625349188378e-01 5.718149070902057707e-01 6.364516321671301879e-01
-1.033030721802660601e+01 4.812218663251169204e+00 -2.069788692495958760e+00 -2.024830100882945849e-01 2.102910705632327071e-01 9.564404300671071057e-01
-8.948591223508204351e+00 6.743288035913142409e+00 2.887360629109824828e+00 5.627558762784204971e-01 5.860379083654568833e-01 5.829797540847772019e-01
-9.062821441035293191e+00 1.322122552481765245e+00 2.490759798030225181e+00 2.781554384534281055e-01 9.327393709100172403e-01 -2.294053574203670509e-01
-9.916653064651734795e-01 1.096581115502735315e+01 -1.921691693675237289e+00 9.807761935038743495e-01 1.510471336067561454e-01 1.235427929311686684e-01
-5.826324520151537900e-01 9.923937764717347676e+00 -1.452241291004725543e+00 9.708085165992439425e-01 1.400291244945948699e-01 -1.947374344897584986e-01
-1.047615648442151759e+01 -4.823261985783473094e+00 -3.020633184225963053e+00 9.378661600314516233e-01 3.468695477103870828e-01 9.411840364738981515e-03
1.453072796870479078e+00 9.306917479895439271e+00 4.742951036532328524e-01 -8.496321458630856638e-01 -8.735141201695060045e-03 5.273034363858013496e-01
8.867127381637242678e+00 2.180828720953045696e+00 -2.068154848646964084e+00 -5.017498764703153674e-02 5.660058506269259881e-01 8.228729231605025340e-01
8.905098951698196430e+00 -1.719533901335265291e+00 -2.166769191898187508e+00 -6.281529186952305999e-01 -6.727164639553083747e-01 -3.909942069367898787e-01
8.613408840524249044e+00 6.050191910896800529e+00 -2.352110579983119898e+00 -3.981801472980491807e-01 7.029083458531609763e-01 5.893830907208629233e-01
8.675466393721009695e+00 -4.252086138903171886e+00 3.458396391743498555e+00 -5.276632662790174955e-01 -7.649668444402205614e-01 -3.693199213783764367e-01
-9.198804993594099644e-01 -1.247726190932912438e+01 3.105377890565724996e+00 9.640015663306280569e-01 1.106754121674799612e-01 -2.417683462607428113e-01
-2.282514005095747367e-01 9.628961510229355980e+00 -1.221676844334197209e+00 6.963811632745229296e-01 -3.412675514125406567e-02 7.168602653376394684e-01
-9.362668095006478453e+00 4.566305117693739035e+00 -3.281510829206001123e+00 1.472913759359988257e-02 7.437246758657466428e-01 6.683237681050545609e-01
4.651004259783636741e+00 8.818743385892345188e+00 2.337217443916792092e+00 -7.122596170997715914e-01 3.547546817025473698e-01 6.056693435027160621e-01
1.849709521342524976e+00 1.151647119846233380e+01 7.826283500398427684e-01 9.460778271958355523e-01 -6.520375251196003363e-03 3.238737865202898636e-01
-5.553971600514435281e+00 -7.665777004034323383e+00 -3.521267764489482976e-01 -7.606919008679217109e-01 6.345940680028668845e-01 -1.365217960968907740e-01
8.962459623843432865e+00 -3.736047090106262125e+00 -2.146445356333501475e-01 5.304326405606769601e-01 7.721444120982469128e-01 3.499060169435217471e-01
3.232642398149986995e+00 9.057978387135715792e+00 -1.307737906075872036e+00 -7.084375659271485715e-01 7.959496093164111774e-02 7.012708873021236133e-01
-8.051267792720610217e+00 -5.820036347338289673e+00 -2.652031395721269558e+00 2.197913180719834048e-01 -3.590975047875651360e-01 9.070505821372503164e-01
1.779775846893101532e+00 -1.062025165305287366e+01 -8.629970734145149258e-01 -7.249563134045056145e-01 -3.966085298303043682e-01 -5.631518602657659134e-01
9.544384476905086956e+00 2.546447395784386281e+00 -4.613368178375749085e-01 -2.671194846163135184e-01 8.395792559348619344e-01 4.730262719365369017e-01
-8.779565546267139808e+00 -5.096492799172800403e+00 -2.979244813455057539e+00 3.966836683446687828e-01 -9.172170975539891691e-01 3.680846673325053470e-02
2.055500640622734299e+00 9.022701143933673507e+00 -1.939743475823438645e+00 -5.739004399556525415e-01 -6.656452652168727557e-02 8.162153201378002931e-01
-1.124268114618144843e+01 -3.494060494905513181e+00 -1.685801411037288533e+00 -2.010742396410797606e-01 3.952782314966419297e-01 8.962835878546748791e-01
7.880604143624716507e+00 7.588774242681918025e+00 -2.036322111259547540e+00 -5.719611903848312862e-01 6.540417944958286656e-01 4.950653772445042788e-01
6.613451555082658473e+00 -8.244233886688775215e+00 -1.536834070804838914e+00 7.460975855566522874e-01 6.657210666954341827e-01 1.240379717776842437e-02
-9.498058354115210378e+00 5.796865967219590132e+00 3.000679710295258484e+00 5.657090783022513669e-01 7.017404874063511988e-01 4.330514138772831312e-01
-2.718303721597989497e+00 -8.978069128247543773e+00 -1.356043027394792322e+00 -5.424779237822947575e-01 5.945373553504165187e-01 -5.935006615849584000e-01
8.173981094524283009e+00 -7.859718901759694454e+00 2.739290043049153134e+00 -3.887245365407647757e-01 -9.054823201199031502e-01 1.702791902771580157e-01
-2.833765212941584899e+00 8.605938404451707768e+00 -1.807166499018569850e+00 6.499006792112376196e-01 3.191906432651923087e-01 -6.897437498178037307e-01
-2.422495041537700011e+00 9.314558952699998784e+00 -3.046291512370010501e+00 -8.225072298518746328e-01 -5.264885380132440229e-01 2.151550050128335778e-01
4.097357069591700096e+00 -8.432140298889562402e+00 7.183350618123792719e-01 3.034704204426444396e-02 2.229539153894913583e-01 9.743565100370907839e-01
-8.181098649752891916e+00 7.817116523469273659e+00 1.609874278287060090e+00 3.642212443038880254e-01 7.899229859548089205e-01 4.933199382327521643e-01
4.883193686315873805e+00 -7.346502582520073155e+00 -9.172718308366210049e-01 4.539191503751495715e-01 4.109654382043279597e-01 7.906104056513720835e-01
8.974838014904536365e+00 2.564143982808866351e+00 -3.565885382192805597e+00 4.392027098699074344e-02 4.546063386400499007e-01 8.896089515425964489e-01
-9.986780004647824782e+00 5.662863120658723659e+00 -1.946360087859303700e+00 -7.935908127877489004e-02 4.565279597368913644e-01 8.861627154180321542e-01
9.569816608360788734e+00 -8.227986955199633190e-01 1.670585769117297836e+00 1.100909192031070821e-01 8.923756915719395222e-01 4.376592448475385977e-01
8.969651937484741211e+00 -6.884325481951236725e-02 -3.402628719806671143e+00 5.388875322832014092e-01 3.892264131743844446e-01 7.470629336522627284e-01
1.082916089840437834e+01 2.762396896184260875e+00 -7.525659660878819546e-01 1.034385872354512681e-01 -9.767179612711385239e-01 1.879427646946925934e-01
7.250053048133850098e+00 -4.241201460361480713e+00 -3.402628719806671143e+00 4.641594347041936297e-01 4.346132233882725182e-01 7.717948984225919684e-01
-7.804881179221726306e+00 -7.003746818387790896e+00 -3.531780616515502125e+00 -2.745809392420505146e-01 1.795050439588625479e-01 9.446603871224200644e-01
7.095790252498941797e+00 -5.981910904513907390e+00 -1.991558656980373154e+00 3.527858170569556640e-01 4.913525971283542737e-01 7.963132502845078342e-01
1.129108994068584693e+01 -3.206006787608157271e+00 2.824136738990410400e+00 3.077331417555151383e-01 9.478301924618097729e-01 8.317595640020397640e-02
8.355583818444870303e+00 7.737268831398463220e+00 -1.651168204083777624e+00 -7.356377269526477303e-01 6.741054699865621780e-01 6.647518347577295594e-02
-7.072057306283774381e+00 9.542550315746954226e+00 2.853754686835813459e+00 -8.130531805030634107e-01 -5.257507419005503779e-01 -2.500613585999926780e-01
-7.227461063750840076e+00 -6.340447019422336794e+00 -3.531780616515502125e+00 4.996917081543936767e-01 -7.473526218257109388e-01 4.379180921724747377e-01
-1.018003619417996575e+01 5.989293148446804160e+00 2.227019137186351472e+00 2.166860384653967464e-01 7.240089375806869620e-01 6.548726739126145002e-01
8.740450446226033065e+00 -1.189468278302000970e+00 -2.662319421584494972e+00 4.124065916703667511e-01 4.435308084597109346e-01 7.957394203468285410e-01
5.619935497719916739e+00 9.959161654863633473e+00 3.447107310283661796e+00 -8.890756566552890927e-01 4.352339248996342502e-01 1.418305586234008542e-01
3.879750942780228584e+00 -9.474283050149779228e+00 -3.183913869843520317e+00 -1.894304318038987633e-01 9.550211982230706331e-01 2.281460550856818648e-01
8.698210716247558594e+00 -2.789282556623220444e-01 -3.402628719806671143e+00 5.760496636831128336e-01 6.179847532833331325e-01 5.350342322505267090e-01
-4.456532935867084433e+00 -8.029283874921112840e+00 -3.233934851207487249e+00 -7.939918014412189473e-01 5.328738513067569071e-01 -2.926131880787877781e-01
-1.124973928514152277e+01 4.252717661136403038e+00 2.845289708471653967e+00 -4.918149695557094692e-01 -8.136710788758096946e-01 3.099313006490189704e-01
2.656579003429040853e+00 1.089167725938030884e+01 -1.170114070018777097e+00 9.650805428847456513e-01 -1.217844092807024714e-01 -2.319226237378210764e-01
9.407495361511902132e+00 -2.651522427038768726e+00 1.145191296685970084e+00 3.337010924248331456e-01 9.209560567351312566e-01 2.012051750759676627e-01
-8.051373134258179576e+00 -3.689819208310795684e+00 -7.804786739651854433e-01 3.428950547103913893e-01 -7.850993840991977724e-01 5.157925343994601564e-01
-7.693419988514109686e-01 1.061804271188547055e+01 3.527248529187017478e+00 9.911631777523413067e-01 -9.739454918372304759e-02 9.005474366839319456e-02
6.392944834383489372e+00 9.025241844330917473e+00 1.550259246316067374e+00 -8.263272289648698754e-01 5.516461030680709365e-01 1.134455271972008295e-01
-7.680890086353941992e-01 9.430873636873263521e+00 2.910582092991643943e+00 -8.698499573637873405e-01 -5.524034625953952449e-03 4.932854515548462104e-01
-6.552237205497214667e+00 9.223629199099638853e+00 6.596368695995726839e-01 3.249060281319923749e-01 3.153432609026362576e-01 8.916247532941112830e-01
9.279310728759268656e+00 -2.254425761906409864e+00 -1.375394054073134420e+00 -4.296242651958368519e-01 -1.263803709345140969e-01 -8.941202338597376009e-01
3.229064018621588428e+00 9.977150043180250449e+00 -1.672550260924181131e+00 -5.750076472665711647e-01 -3.601962338415530263e-01 7.345916407850853203e-01
2.733572888927958466e+00 9.975202520929354222e+00 -1.135397780299967740e+00 9.746813096221786932e-01 -2.038642641689352442e-01 -9.184610208415502908e-02
2.522095868137256502e+00 -9.421749767435292355e+00 1.467859857997830364e+00 -6.939486790048696729e-01 -5.011367688971781753e-01 -5.170079010679549114e-01
-1.131382810697334662e+01 -1.622313318872118160e+00 -2.867329224012871602e+00 -1.595234966009054234e-01 2.420233624481649137e-01 9.570668451375299313e-01
1.050777660728918761e+01 6.396647189682123091e+00 5.183105210026259790e-01 -6.893069033695183867e-01 7.025348420503078062e-01 -1.769202890356971480e-01
-1.162141474820237974e+01 -2.482337408588201733e+00 -1.624237447928932321e+00 -1.447076294318339340e-01 3.129997483230181343e-01 9.386644019743937140e-01
-5.400352823911449995e+00 -8.200880697326187629e+00 2.927039099230341890e+00 5.343816483109459226e-01 -5.946765516330618784e-01 6.006630110854893623e-01
-5.203100899183133343e+00 6.941972275322223496e+00 -3.764192712423976017e-01 -7.172999867400857710e-01 -6.541649473057584707e-01 -2.398936237983972652e-01
7.567373611194750715e+00 7.927904921053436027e+00 6.016159899240922648e-01 -7.133315348621246388e-01 6.981785678529329742e-01 6.086714024884840729e-02
6.101658033136765802e+00 -7.876209119582973095e+00 -2.879483258017126790e+00 2.749772147270155287e-01 1.816222012964102683e-01 -9.441403006848182455e-01
-8.445129596076437650e+00 3.591849950344330189e+00 8.979298100035872920e-01 -4.506094162733870201e-01 -8.068931806284228569e-01 3.819352681032543995e-01
-5.643091512321318781e+00 -1.070417275369608134e+01 1.633599547619407844e+00 -4.007295322839221630e-02 5.432482689070429194e-01 8.386152137595979106e-01
-9.263310130037625711e+00 -1.341682071905500484e+00 5.838134633715293953e-01 1.684521394223465196e-01 -5.389748922025375810e-01 8.253059688983819253e-01
-8.784570331449121028e+00 -1.662700791997399064e+00 -1.201848751343284616e-02 7.474122133911438592e-02 -5.290302150087683453e-01 8.453051410233549667e-01
1.025866684574933707e+01 -1.993866242582886361e+00 2.811245371603718013e+00 3.313726368930549060e-01 9.266231979734186330e-01 1.776559160176152674e-01
-1.188618670726463655e+01 6.651350341449926429e-01 -1.744341995772233700e+00 -3.003789919282751630e-01 1.383158899670443309e-01 9.437378745132453117e-01
-4.967197795256751647e+00 8.651576670255581192e+00 1.304401410008310336e+00 -8.214430488695003696e-01 -5.668086078124425775e-01 -6.292312431610760926e-02
9.707039793203309230e+00 1.366016194877395895e+00 3.213139612663756139e+00 -1.791365250024408995e-01 8.334439129404430657e-01 5.227631867227962026e-01
9.641374508792553755e+00 1.235178712900248721e+00 -7.843650022931318855e-01 -2.424250364695806903e-01 7.303232802565507997e-01 6.386376186915657671e-01
9.622992952535584621e+00 2.004913449940452619e+00 3.213139612663756139e+00 -3.964189584678105560e-01 8.137133409393010330e-01 4.251148176019001190e-01
-5.007034211293714954e+00 -1.085795565024459997e+01 2.939775964240914363e-01 -6.306287388619953305e-01 2.174894263622846047e-01 7.449870758220801248e-01
2.802780036101208516e+00 -8.320551229646600433e+00 -2.332658424130359620e+00 2.504076642446005363e-01 -2.366034874321419901e-01 9.387836765850328113e-01
3.958763560389108704e+00 -8.828472009103712992e+00 4.560484994441204032e-01 -2.919429829659855868e-02 1.202605889547558732e-01 9.923129968367966347e-01
-1.072705896792179558e+01 -5.122573091679004875e+00 2.041753497275875961e+00 -7.187944160460094101e-02 2.556613922559550223e-01 9.640905550747592700e-01
1.800917039724924562e+00 -8.546849753060994814e+00 -2.456464053503110367e+00 -2.626493773335981663e-01 1.280525904485064759e-01 -9.563565436936687369e-01
7.681000578981415750e+00 -5.201121349533323723e+00 -2.983355536595418300e+00 4.454630724543429121e-01 5.697425104684595842e-01 6.906201002321277205e-01
-5.978977770622710963e+00 -8.029117285084836908e+00 -3.012112281147945936e+00 -7.919343055153779121e-01 5.234790088379683848e-01 3.143402345451414281e-01
-5.751372289639496316e+00 -7.608980334074301410e+00 5.743207029546294473e-01 -4.921266089729743887e-01 5.018984117678683132e-01 -7.112730734434224988e-01
-8.929009391096293768e+00 -1.233374952039143047e+00 -3.474282546879717160e+00 -1.077784411202303699e-01 -7.489454474204856327e-01 -6.538077121125305258e-01
-6.764065807034319588e-01 9.820471772685733569e+00 -1.984040058032115361e+00 9.383289595045622988e-01 1.822482718134239010e-01 -2.938100256562148904e-01
9.021743349436530224e+00 -2.917386880616488209e-01 -2.030236942354284313e+00 2.524263345869699471e-01 7.250526531809026176e-01 6.407648521277682363e-01
1.025702782802894930e+01 5.637093833308159940e-02 2.274977933345020631e+00 1.954928899064899694e-01 9.352038238676144699e-01 2.952563933590618417e-01
-7.150370868657512702e+00 -8.884573428597935418e+00 2.964142654044215064e-01 -8.207993802065788325e-01 5.709712242156489426e-01 -1.674032766044642601e-02
8.043756517008372242e+00 5.720358673914663683e+00 -8.329508189085743641e-01 -5.851239225738248395e-01 7.049179741219895323e-01 4.008997942024543626e-01
-6.510034114429315011e+00 -8.650458088779149790e+00 -2.900607240967060463e+00 -6.776972910237372139e-01 5.313365787617667646e-01 5.083382946511396661e-01
3.965721901475264266e-01 9.843623341550753025e+00 1.796112269642413661e+00 -5.479266229577538505e-01 1.828497179142366535e-01 8.162979826710315967e-01
9.989408453176453762e+00 1.391025707778702047e+00 3.521472830761442907e+00 -1.832336039750363799e-01 8.968096523770984208e-01 4.026883333020556677e-01
-9.243558258035271535e+00 8.145270306245528946e-01 2.151863615987625433e+00 2.580494165583149258e-01 9.661039237392557988e-01 7.328516188654299844e-03
-6.742599118153048465e+00 7.808827137104986882e+00 3.179564224072241707e+00 -6.423061648793807477e-01 -7.537136816415179741e-01 1.391347428370436901e-01
-6.723479794580151214e+00 7.030039527902395058e+00 3.537186492840114216e+00 -5.084195432126589198e-01 -8.347836575009938143e-01 2.112955589895219033e-01
-6.909659230598069080e+00 -5.842828224981113650e+00 -3.221999363177642017e+00 5.516585329219378941e-01 -8.312576000847842206e-01 -6.843730967608510629e-02
-2.468463907443797734e+00 -1.182894401112464777e+01 3.104461171884018711e+00 -4.986855752920925366e-02 -2.632922012857540350e-01 9.634263561435600920e-01
1.114666939567559822e+01 2.562407968807943748e-01 -2.487439019335812240e+00 3.322108864221818836e-01 9.300563602580063094e-01 1.569429631624747468e-01
9.685762072914867460e+00 -2.466717913009845720e-01 2.864559524952210001e+00 2.135643462196386011e-01 7.570159649449280659e-01 6.175087844251916369e-01
6.582577541941135202e+00 7.239200377001955289e+00 1.061927985603243751e+00 7.153485995298143330e-01 -5.706867118074612222e-01 4.032282952833555201e-01
-1.173124999969033944e+01 -1.392786413258389366e+00 -7.249188591153629679e-02 -1.593194203771674533e-01 5.131481369231932765e-01 8.433838461003027032e-01
1.063743806685652515e+01 -5.116571779161773748e-01 -3.505413506621631203e+00 4.818763150396007111e-01 8.478411896663807790e-01 2.212702738936059010e-01
-9.238916212878866219e+00 -4.644061838290233224e-01 1.420182938150186480e+00 -1.618538896481195588e-01 -8.769752593553619135e-01 4.524574155479939019e-01
-8.331414580176195628e+00 3.349617015249534813e+00 3.196006143377451814e+00 -3.601164475950601740e-01 -8.914961289430380909e-01 2.748650509815535603e-01
-1.117473484120581478e-01 1.105359735185032122e+01 3.404936632083716219e+00 9.872033915264373238e-01 -1.252245486488401116e-01 -9.873335897453239252e-02
6.369435436278589435e+00 -9.084400932263717365e+00 3.751718605918195060e-01 -4.526751749389408830e-01 -7.822890505205737366e-01 4.279124062581250998e-01
-9.227058309657422797e+00 9.026077359155657565e-01 -2.436823346244247013e+00 1.016288189425260668e-01 9.658209471249383782e-01 2.384564556790915724e-01
9.330240961376704334e+00 3.108310488145627826e+00 -3.565885382192805597e+00 3.331175570998696697e-03 7.118003472589579106e-01 7.023739523297699572e-01
2.275918976472209199e+00 -9.537561393031635859e+00 -2.547530456877819649e+00 -2.072107030196275457e-02 1.299131915217435762e-01 9.913088317543509165e-01
-1.042862159955584644e+01 -1.476577755793615943e+00 -2.938983051085917175e+00 -5.437848229589453686e-03 4.820788919081823998e-02 -9.988225213852547357e-01
6.902708053588867188e+00 -4.308255970478057861e+00 -3.402628719806671143e+00 4.253560505886273546e-01 4.631777790988464427e-01 7.775207876170933119e-01
-1.020071221524121974e+01 -4.651520023350611766e+00 -3.330414437563823160e+00 5.650811199471168500e-01 -6.169340567314596235e-01 5.477916552159007857e-01
2.652075935615683555e+00 9.920263331308760257e+00 -3.282699501395113018e+00 -9.306727080246198769e-01 -1.590606712597081437e-03 3.658493959382830285e-01
8.045841336250305176e+00 -2.735325515270233154e+00 -3.092847466468811035e+00 -1.355453297366976395e-01 4.560213853910714543e-01 -8.795862434420957943e-01
9.902088488184340065e+00 -4.941584818315825522e+00 2.647972913306639309e-01 5.914755058381382380e-01 6.499091985022960039e-01 4.772575402187182458e-01
-1.038139415434857149e+01 -5.291258044341750733e+00 -1.168992003534694124e+00 3.235825060316118579e-02 5.599139590264380281e-03 9.994606511783000746e-01
-8.647615890610971690e+00 1.829819967698992578e+00 1.831428859077840920e+00 2.267956779357530872e-01 8.183901079745037332e-01 -5.280164312207930033e-01
9.161903945618607992e+00 -1.696065758432073967e+00 -1.989194174754840505e+00 -6.659285511871722019e-01 -6.537809766417518320e-01 -3.593182423633832223e-01
2.605700045824050903e-01 -8.247726917266845703e+00 -3.092847466468811035e+00 6.965403950846525971e-01 -1.465553573709482693e-01 7.023909205287250934e-01
5.878463298843051632e+00 9.179480827818334632e+00 2.126918563932615580e+00 7.480278755925212630e-01 -6.295105321220112460e-01 -2.101684735729931197e-01
-2.184048209708738586e+00 -9.534565898900813963e+00 -3.468393850387729849e+00 8.808156989050064389e-01 -3.675733432389026722e-01 2.984184007440911501e-01
1.754249945583910286e-01 -1.188625379380666658e+01 1.553758663309963817e+00 8.381526931376246381e-01 2.976151514483562632e-01 -4.570834547591050012e-01
-1.424429582615362178e-02 9.759156720960657339e+00 -2.490809746399521352e+00 8.159172312357521051e-01 1.869272298723699266e-01 -5.471172474934661301e-01
-1.147057807403321306e+01 -2.548636261467990494e+00 2.063081138706690076e+00 3.480626326995051034e-02 5.318946576861766085e-02 9.979776574495202723e-01
5.563468953293212671e+00 9.404024193505765794e+00 2.946248414018239004e+00 -9.209656329595845570e-01 3.896420450986464723e-01 1.174563193799839670e-03
9.778098020091718467e+00 -7.278797188709938970e-01 -2.384066421200564001e+00 4.383386689857234342e-01 8.231698294929946647e-01 3.609025395924758128e-01
8.066542134677276987e-01 9.926630205889491521e+00 -1.108342482819694608e+00 5.108906519505306276e-01 -1.463145293897770705e-01 8.471025913305954003e-01
1.177923886375794993e+01 -2.245184228047925501e+00 1.842072650481349383e+00 -1.214041947375257315e-02 9.551308168484454741e-01 -2.959353526049608440e-01
1.030271986585058386e+01 -3.318599659034809912e-01 -3.294523376425062544e+00 4.799970787602846900e-01 8.515513296589473091e-01 2.108628401062455360e-01
8.833530422512568592e+00 3.141589966695585101e+00 -3.565885382192805597e+00 -1.219500884441702612e-02 5.189122563893951989e-01 8.547405173081191743e-01
-1.472279174719472117e+00 -9.511333290370828308e+00 -2.664451499471419016e+00 -9.856208501535971278e-01 -1.139220494386722904e-01 1.247930542706324059e-01
-5.631966619439651822e+00 -7.965958604298196022e+00 -1.222129477335027525e+00 -5.731114926374857310e-01 4.948244427830579828e-01 -6.532166469336719850e-01
7.998959963645791760e+00 4.904825912413583566e+00 -1.318289404825983668e+00 -5.174275597268876981e-01 7.105550108066774895e-01 4.768441014132400735e-01
-1.786401804893256173e+00 -9.945475234712498391e+00 -2.963518790518822499e+00 -7.549901628444950497e-01 -3.160073267537798491e-01 5.745687282179327005e-01
-7.765511238463974841e+00 -6.599245022619053103e+00 -3.531780616515502125e+00 -8.337380420151171978e-02 1.055407614574417272e-02 9.964624530054696505e-01
7.949304148337974496e+00 -4.476120841142599005e+00 -1.623777241571632501e+00 4.024791330289032021e-01 2.560893727775125917e-01 8.788792753425936910e-01
-5.192842873283598948e+00 -9.894871910721708019e+00 -3.480389699169241791e+00 -5.008502715075647815e-01 5.289611964014208079e-01 6.850905474697313036e-01
2.937349754956147585e+00 9.777009061574878146e+00 -1.503441793576761443e+00 -6.803496667714020729e-01 2.651982602661037344e-02 7.324076936731074294e-01
1.459397594717361635e+00 1.094905626953934075e+01 -1.268011632152346246e+00 9.966161582092252225e-01 -2.233244533602019369e-02 7.910433035933150947e-02
8.862852091390402975e+00 -3.874357915708340094e+00 -1.719576922747108938e+00 5.689531203026056971e-01 7.389840123329167731e-01 3.608254098788939990e-01
-2.213145825770274744e+00 -1.023372103037555725e+01 -1.312392681703387964e+00 9.171124690571171856e-01 4.212409846355420762e-02 -3.963966188410176228e-01
-4.588312387199867004e+00 7.768257345055361363e+00 1.832289805570120667e+00 -7.655365313385098514e-01 -6.286830023706619919e-01 1.367899912874211421e-01
-1.395692140810395721e+00 -9.991725554570280110e+00 -1.666150642544782290e+00 -6.515749691901101537e-01 2.309982850644406310e-02 -7.582324560765516530e-01
4.951939379314600487e+00 -9.821915098236486230e+00 -2.081124175911984175e-01 -6.643652010309430977e-01 -7.297309224934031002e-01 1.615910282659325237e-01
3.168532743889601822e+00 1.111098663460155400e+01 1.484983398738205285e+00 9.166513657492363354e-01 -8.447338638060884752e-02 3.906590849621344730e-01
-1.009172982141681807e+01 -4.955291897449052740e+00 -3.530402200192480411e+00 3.198452192120391224e-01 -3.216005225559150360e-01 8.912194677176688007e-01
5.204220568279444237e+00 -9.575090595291539941e+00 -5.178934042215562750e-01 -6.917146706238171960e-01 -7.071109044085359674e-01 1.467139506329452336e-01
8.736239346531453620e+00 -1.963346686528387508e+00 -3.390242042587960469e+00 5.485317589291187623e-01 8.341842919678255086e-01 5.700417949821739300e-02
-7.084801280387497791e+00 -5.625229786718174196e+00 -2.912218109839781910e+00 8.858130654093097911e-03 -3.432069493610133692e-01 -9.392180382805803696e-01
5.897169801817046420e+00 -7.384582538863302403e+00 1.971796190289951456e+00 3.748372504843624498e-01 6.853078047549471252e-01 6.243798910849696071e-01
-1.023197428881268856e+00 -1.083994945348904082e+01 -1.029755133115259680e+00 -9.929923698145317612e-01 -9.674350271663359480e-02 -6.787376645094012062e-02
-1.058159368062838546e+01 5.642822797600365092e+00 2.174094447816374398e+00 -4.278096401581165664e-01 -8.756469666973537569e-01 2.241010966093343049e-01
8.939339178434776656e+00 -4.661048074278482112e+00 -3.182359534399198608e+00 6.076936698455469577e-01 7.814709491299662858e-01 1.414622186152929839e-01
8.324584393989294284e+00 -4.737943132072999219e+00 -2.747598180171353932e-01 5.832384078901570179e-01 6.446124606323833106e-01 4.942749590655171055e-01
-5.317013320444484492e+00 -7.244646891766226560e+00 -2.906992761277467974e+00 -6.581235927216353421e-01 6.074122841959458396e-01 -4.448861131919387146e-01
1.007979481261832078e+01 -2.860345917631301305e+00 3.713838799858939499e-01 3.738366020115886368e-01 8.986171675627072641e-01 2.296374994594881092e-01
-1.069974069026339869e+01 -5.440017504219031963e+00 -7.209554615421724932e-01 -2.163930657620740661e-01 4.251282860915654993e-01 8.788856475417827774e-01
-6.704546296485520251e+00 -6.118822764241977907e+00 -2.912218109839781910e+00 3.079884065851634656e-02 -4.740295181234111532e-01 8.799701400398641793e-01
-4.008748484138389578e+00 8.646062939266421665e+00 2.229905979017029694e+00 -2.832936173637089494e-01 -8.489320994095251871e-01 4.461603040983371793e-01
-7.119306703241784717e+00 5.295583341901295427e+00 -1.088709084936741123e+00 1.354596612873013306e-01 1.695071837589815222e-01 -9.761751865408321294e-01
-8.504002642226849318e+00 5.899993221616228745e+00 2.772626224636731695e+00 -3.445336598804434047e-02 -1.446540768868857796e-01 9.888822799565661903e-01
-1.072219557630590714e+01 7.362945329351543167e-02 3.039575521232033672e+00 2.269577992681229284e-01 -3.367498454016369380e-01 9.138324239013103645e-01
-1.100179565620514488e+01 -3.385239513719114690e+00 -1.192346055659385673e+00 -1.832690394182467375e-01 3.998586926833277988e-01 8.980676394772796334e-01
1.083464911968419031e+01 4.247784538349774763e-01 -2.649870841339085459e+00 2.971779246654884798e-01 9.479347476266870576e-01 1.144770515581295389e-01
8.406678120858595449e+00 4.552602385629038295e+00 2.006040855569883596e-02 -4.659796789470279088e-01 7.069641577347812733e-01 5.320381738999337973e-01
-2.963882443778063980e+00 9.043967811346018237e+00 -1.484457755948604518e+00 6.699651761525700078e-01 4.027555942440568804e-01 -6.236462090384038426e-01
8.489701419524312342e+00 -6.679868396440804545e+00 3.378047454820065632e+00 -4.227390617971382158e-01 -9.060474940248267606e-01 1.922561318155562721e-02
-6.976779978308327301e+00 -1.012009964601343626e+01 -4.572617616108880512e-01 -7.284305133280595257e-01 3.411681522530228827e-01 5.941323750990833430e-01
-1.060278679180481376e+01 -3.752729947522326803e+00 2.611041007296596161e-01 1.097322623358490054e-02 -1.662041264452018136e-02 9.998016554244909537e-01
3.462830954828137742e-01 -1.224025584568829217e+01 3.133195720494728498e+00 -3.977950213745420349e-01 -5.181201551777487868e-01 7.571727846193450073e-01
1.099744506180286407e+00 9.381934642791748047e+00 -3.557519346475601196e+00 -4.508222803329440254e-01 -5.963005331495186551e-02 8.906197439407349536e-01
-8.334542118512239028e+00 8.157436364260572503e+00 2.036065661827998419e+00 4.016935929963130203e-01 5.989247257850786044e-01 6.927708352615464804e-01
-3.267108858828743578e+00 8.661690868273835164e+00 1.683206318354648345e-01 6.364618981768748185e-01 4.105479092948135511e-01 -6.529675844502138560e-01
-1.101128112855582941e+01 4.205684410804524376e+00 3.461956144667027502e+00 -2.567772906225998519e-01 -8.639686481401450679e-01 -4.331553971167935724e-01
1.267054899191923711e+00 -1.030953440059483128e+01 9.979044708565808497e-01 -8.499323426432131567e-01 -3.791995478523920715e-01 -3.658178724960836625e-01
-9.073853847837332509e+00 -4.540427705559117122e+00 5.595127963989610098e-01 4.540449144426302874e-01 -8.753652754529059887e-01 1.660688116415681148e-01
1.223724373993997361e+00 -1.077331968001248086e+01 3.565912603953590221e+00 9.669770908846740953e-01 1.469262341954558626e-01 2.082498197102573556e-01
-1.182176964701883648e+01 -2.238260835621172617e+00 2.246116162747937572e+00 1.708485237079639396e-01 -9.758944356521909169e-01 1.357970265134730847e-01
-7.785379076575498658e+00 4.083261133065507309e+00 1.970109047389237089e+00 -4.607121344859895218e-01 -7.993372743588537110e-01 3.857515404478925602e-01
-5.555315169044707346e+00 -1.007887645593350001e+01 -3.480389699169241791e+00 -2.005794667548694288e-01 6.590424574834410354e-01 7.248661371250000318e-01
5.145979121038774196e+00 -7.308641473740165928e+00 -6.074908442062632030e-01 4.624095199491923824e-01 4.144675561816651421e-01 7.838329418525070702e-01
5.544297467866025286e+00 -7.096272492095249795e+00 -1.788958160378564255e+00 3.951222318338746819e-01 3.358895443103953049e-01 8.550185003457952959e-01
8.109314144794712576e+00 -5.478683972254632550e+00 1.018716278025668664e+00 4.536334911341689535e-01 8.840786477759716711e-01 -1.123458956439221390e-01
-5.839004686951547285e+00 -1.126473650574234853e+01 1.867822145258590805e+00 -6.089262586299888369e-01 4.045094960274563944e-01 6.823348731924061550e-01
4.253526964804506427e+00 -9.367241567741992014e+00 -1.543343604891084020e+00 -7.068357800746866149e-01 -7.041271816070489020e-01 -6.773545695072145933e-02
9.690584111277736667e+00 -6.450756307772852693e+00 1.576194775557109296e+00 6.329845864989203097e-01 7.298491738108837668e-01 2.581679622694527665e-01
-1.178127520503275250e+01 -2.213806092951113413e+00 3.171116115064221752e+00 -1.035528368167155239e-01 7.122976506724117973e-01 6.941965621016669141e-01
1.321692503988742828e+00 9.145627975463867188e+00 -3.557519346475601196e+00 -6.007654036061185199e-01 -2.128268970833067583e-02 7.991420255178404153e-01
-6.027508395518375472e+00 -8.837245658801592185e+00 3.272795676135453746e+00 -5.527130554684245300e-01 1.928501995513419720e-01 -8.107509351507192763e-01
-8.761317776236676735e+00 1.557221411041944448e+00 2.416066645961135961e+00 2.808224299730736062e-01 9.199969022913322414e-01 -2.733943353443359370e-01
-8.147841143833531419e+00 5.053611409442117619e+00 -1.626285608614691069e+00 -5.215254985398296572e-01 -8.490455012317718042e-01 8.445644564431659118e-02
7.610036560479986889e+00 7.495906335500663431e+00 1.925861486069417428e+00 4.540801163915688110e-01 -5.131277432134495609e-01 -7.283619752859777918e-01
-6.775645930926615712e+00 6.365498028286898702e+00 2.390897469001257658e+00 -5.426101335785785684e-01 -7.238199914599686702e-01 4.262145737779598487e-01
-1.896821443360853454e+00 -9.277821514135188963e+00 -3.468393850387729849e+00 -8.270242360698886186e-01 -4.758880361210884313e-01 2.992682576382447723e-01
-7.694636118082568643e+00 4.796373423557589000e+00 -2.978157442604834948e+00 -4.391157934465138579e-01 -8.019359614331377228e-01 4.050629996755416018e-01
-1.109008319394718711e+01 -2.675743759505834429e+00 -7.351198666674844118e-01 2.942125010292721138e-02 -2.796032232704059872e-01 9.596647474921543575e-01
1.018315787116667259e+00 9.763020239749033991e+00 1.652648233738684969e+00 -8.874655886809579286e-01 3.873911845619626426e-02 4.592429744790852975e-01
-7.536091008497511012e+00 -5.015600698062188556e+00 3.396630704402923584e+00 1.970695001752801878e-01 -9.552483066185277760e-01 2.205998295627186745e-01
1.198745131061561331e+01 2.401235297774944932e+00 3.535194038411889395e+00 7.901023801917280917e-03 9.943765103931818672e-01 1.056074306152725711e-01
-9.063675036627650172e+00 -3.418967400655932298e+00 2.737256482526536416e+00 3.238874641137602928e-01 -1.037519559757330151e-01 -9.403895162224892301e-01
-9.295153250891566188e+00 -3.715561901197619310e+00 3.045589700624223184e+00 4.229656174143336389e-01 -7.381249566969934062e-01 -5.256154818747000856e-01
-2.858714901928559371e+00 -1.002542500330171826e+01 2.869541857623304715e+00 3.621038076728494426e-02 1.848270102190226888e-02 -9.991732572920590805e-01
5.393529132448344754e+00 8.662844305406938616e+00 1.517887295807944570e+00 -7.252627806589422299e-01 4.385569326222887310e-01 5.307181133518891203e-01
-5.839370970001425576e+00 -8.325318809123167796e+00 8.315567486111410389e-01 4.218933428701857613e-01 -4.614156458888206691e-01 7.804496197518596690e-01
1.411599676224440381e-01 1.138882100741192005e+01 -2.000908500342569063e+00 9.780547139583124494e-01 8.468437611545914789e-02 1.903615847429807051e-01
1.655791270571524088e+00 -9.747291966087214377e+00 1.602514567174454285e+00 -6.966307024274821513e-01 -3.549125524754627170e-01 -6.234923772835916367e-01
8.815158527207668016e+00 -5.366604255689778391e+00 2.412126280802171507e+00 6.034537417948253601e-01 7.255553742615836743e-01 3.307763298574392663e-01
