1.034931497293415781e+01 -5.040473979566954199e+00 -1.684109586416939530e+00 -5.524816596107803290e-01 -4.971579896524127018e-01 6.690276146157864146e-01
-9.409666700209054824e+00 9.109829672117983890e-01 6.016793413652455902e-01 1.269170300813282914e-01 9.850283078867914099e-01 1.166674767748911712e-01
-6.991598765256095138e-01 -1.168120707502150779e+01 2.827920988747963937e-01 8.600006399530929491e-01 7.276579976303952646e-02 5.050782490516847467e-01
-9.603021860122680664e+00 -9.106272935867309570e+00 3.391656756401062012e+00 -3.775995095154763281e-01 4.702985518363267392e-01 7.976452109517899736e-01
-6.820721798511508283e+00 8.154494796665527900e+00 1.412134628515635093e+00 5.303443483976260087e-01 7.749408956815723171e-01 -3.438044216163314570e-01
9.216349841379310348e+00 -6.575184959810421503e+00 -8.545084841186285640e-01 2.593027917321420461e-01 7.964667483470170284e-01 -5.462625568144379162e-01
-5.836444232014243561e+00 1.029269886001874035e+01 -5.275086608746504258e-01 7.769674134421631351e-01 3.457922069912886531e-01 -5.260697558623652625e-01
-7.892296115166834269e+00 5.077876719385805870e+00 -2.903891347726193839e+00 1.054301234285852512e-01 9.303959883515011686e-01 -3.510666516963217854e-01
-4.110428422219055022e+00 9.042928261985512250e+00 1.757102718605915381e+00 -2.453403977452600360e-01 -5.542986504089012501e-01 7.953370954438555573e-01
-1.010627607395389660e+01 -7.329762625727150649e+00 4.658814921418580335e-01 -3.999139457682370780e-01 6.330990496758014396e-01 6.627627247210547967e-01
8.144577418039810723e+00 7.224792527915105289e+00 -3.087445195509952445e+00 -2.786577334172810755e-02 7.370887117944410205e-01 6.752212449421884921e-01
-4.407930122072679424e+00 -1.014495923764270913e+01 3.486755420857016396e+00 -8.416613964875573339e-01 4.758490748306986040e-01 -2.552915032769074721e-01
-2.960178398921464282e+00 9.522075393549416233e+00 5.204014166142625353e-01 8.329165371852037536e-01 -2.844185662253572930e-02 -5.526672623516543092e-01
-7.117537738246488388e+00 8.218824122507982111e+00 3.523434302439221177e+00 -1.111180931220566957e-02 -6.955023812621664581e-01 7.184378646427714843e-01
8.625515793916099128e+00 -5.298090011947524047e+00 1.891211515717798053e-01 -5.081874618100300500e-01 -8.611884465804869881e-01 -9.998156598453532620e-03
9.219576496956365830e+00 5.397518041841283143e+00 -1.390634052116340724e-02 1.691420991049148032e-02 8.890307086538702386e-01 4.575350353508477186e-01
-9.654687847084694852e+00 -6.621014947671914896e+00 -1.306485336618612880e+00 4.607503999434418018e-01 -8.695083468123142589e-01 -1.779446649261355318e-01
9.167661212140238547e+00 -3.033063417280646767e+00 -3.314665332409163501e-01 3.641313995509374846e-01 8.505444238742093654e-01 3.794502693075406663e-01
-4.318834691769378509e+00 8.922313971748085493e+00 2.065435936703602149e+00 9.600678975302404661e-01 2.734404524181376361e-01 -5.916038466091717157e-02
-9.472033618737658145e+00 2.063012384676660371e+00 -1.534316945296522627e+00 3.150520674433999330e-02 -8.345501727601687403e-01 5.500303910639564586e-01
1.034041239702452764e+01 -4.420053856739540876e+00 6.759690578659314220e-01 -5.088363119129758472e-01 8.484145473125921377e-01 1.458710512307702933e-01
4.625545404828884655e-01 1.168186151315484267e+01 -3.520101556198554249e+00 9.986022243374911289e-01 4.991110912909266228e-02 1.739191575757815036e-02
-7.398720203673075702e+00 -5.873052843032548154e+00 -3.232497647819053910e+00 4.332242408307198089e-01 -6.568688504133554096e-01 6.171224112874879042e-01
-1.031441267985077204e+01 -4.911880548690665371e+00 1.370569256319124074e+00 -2.146091024161995431e-01 9.250618281009213018e-01 -3.133744522942078503e-01
-5.458483929072779794e+00 -9.035848778784504987e+00 8.209574810789127541e-03 -7.360689777506059794e-01 4.119319476464359253e-01 -5.371354861684263238e-01
-9.029582545229020596e+00 -7.366561906320997721e+00 1.884961857024054055e+00 3.033780826220279225e-01 -7.324767050451345130e-01 6.094584608903260703e-01
-9.314156609099432771e+00 -7.248231978262344555e+00 3.057318673853639979e+00 -8.569174604639127890e-02 -1.129961041229708141e-01 9.898933301687364850e-01
9.867555756779733400e+00 -7.194456574337524390e-01 3.209280823920263259e+00 3.473051479643486927e-01 8.546238706326131362e-01 3.860015206477721561e-01
2.486517382208576876e+00 -9.769521403274238125e+00 -2.350616179400584649e+00 -8.278255657793125444e-01 -5.469220905214319250e-01 1.248241144243671108e-01
9.325453133929508809e+00 3.235177382326237527e+00 -7.830698925692627377e-01 1.674079320056655606e-01 8.744750711927602449e-01 4.552668823492471706e-01
5.278235667605732928e-01 -1.003498215222619017e+01 -2.892775909686752911e+00 7.281232289005908909e-01 4.361229922748542376e-01 5.288036489516739769e-01
-9.834209678669953547e+00 -3.669602694018618827e+00 -2.434034355357074908e+00 5.158704373001865573e-01 -7.491805733279175428e-01 -4.154589756736122852e-01
1.156078002334707477e+01 4.058212072879182841e+00 1.717410371499754396e+00 -7.547729870954275611e-02 -9.795005469339942428e-01 1.867668491341988590e-01
-3.866318450624925074e+00 -9.758174207277718892e+00 2.870088865452353311e+00 -7.961539718327226289e-01 6.018216723855226435e-01 -6.284526857348297912e-02
5.944942557157764096e-01 -1.270141914633584967e+01 3.098487964391433369e+00 7.309713121695486926e-01 1.762631491090788094e-01 -6.592512745920774409e-01
4.691130303272848856e+00 1.015458089367873740e+01 1.270566647783765712e-01 -5.833719980646449033e-01 3.354180121011116067e-01 7.397106657553360609e-01
-6.479467126996009796e+00 8.619181395756417174e+00 3.498002294789890776e+00 6.095589222210837654e-01 7.608287679207857979e-01 2.226600688152454155e-01
-2.284488880469773608e+00 9.723909356943581273e+00 5.204014166142625353e-01 9.640708107565192364e-01 1.837405984639078546e-02 -2.650091805429176661e-01
-9.736814184142687623e+00 3.808209687888997497e+00 -1.807431909990061258e-01 9.610083054920158518e-02 9.739285720608383823e-01 -2.054939582841550927e-01
-5.249023347622649993e+00 1.088569740795108842e+01 1.757102718605915381e+00 8.959054698581686571e-01 4.123111365054983879e-01 1.653871693686006505e-01
8.400184557269524177e+00 -5.634125364644148704e+00 -2.217472708579163176e-01 -5.221611640378651664e-01 -8.397846208376833488e-01 -1.486926675230820227e-01
8.894474163226659513e+00 5.870059900781129159e+00 -1.835297178360586035e+00 8.249100180592232323e-02 -6.684433508187118678e-01 7.391743511292231394e-01
7.802328451897849071e+00 -7.682637248403761276e+00 1.663143462146168483e+00 -6.270842083042509341e-01 -7.536053804954896407e-01 1.970896399704435420e-01
4.653927404063605167e+00 1.065287551902292584e+01 3.110024601960113544e-01 -6.731057993117758320e-01 4.806664498547223441e-01 5.620394531675806382e-01
-8.500394359589149573e+00 7.718145193111095814e+00 3.477959878809509409e+00 4.099363792595799860e-01 4.952315199424988101e-01 7.659620790972540005e-01
-9.196192572522452480e+00 -7.645470466878220961e+00 3.406166003802308495e+00 -3.037240116008845248e-01 -1.625185026350364076e-02 9.526214369517822522e-01
-2.505633407666657764e+00 9.621431568018410374e+00 8.287346793401721978e-01 -3.232906642353737259e-01 -1.575074238576890107e-01 9.330994362060054392e-01
-9.777961323666861659e+00 -8.386774745251939223e+00 1.864499734499940553e+00 -1.689795702986063020e-01 2.181628773425974277e-01 9.611716099486591336e-01
-8.644529738003686958e+00 -5.335869135810957786e+00 2.386687066043535754e+00 -1.103228282287449652e-01 9.540659731233916974e-01 -2.785444174628646796e-01
-9.790802683317352262e+00 2.930020323305723706e-01 -3.277670207419670412e+00 -1.973125936505353006e-01 5.558509532144070286e-01 8.075255155086640269e-01
1.066900127174727864e+01 3.243365838270514612e+00 3.488365623833193041e+00 -5.592976223129004359e-02 9.848546999972747074e-01 1.641130146881392693e-01
1.106636156580072949e+01 -2.488369201140445686e-01 3.517614101622594802e+00 3.086308136467738050e-01 9.414465546413103292e-01 1.357402137236292383e-01
-7.860344988562449231e+00 6.678187996615422506e+00 1.078340844208891092e+00 4.383540959360449074e-01 8.742001474305040043e-01 2.088535104052062497e-01
1.009710365426022349e+01 2.188732711496073513e+00 3.475602702590417259e+00 2.161428377038221993e-01 1.116629073041253278e-01 9.699554983821317977e-01
-1.163853816580874856e+01 -1.415772461260997428e+00 -2.125536726634535967e+00 -2.520533969134861052e-01 6.199188157878460226e-01 7.430812519076007705e-01
-9.058033721197261912e+00 -1.199980649152123213e+00 -2.426014841460620630e+00 -3.339378397127418796e-01 7.226231974461244656e-01 6.052282492752025789e-01
1.057759977177355104e+01 9.535921055165128557e-01 3.079097198334793006e+00 2.802477136392814150e-01 7.133892763260517578e-01 6.422904011605246044e-01
-8.582539288189920512e+00 -4.929776609053221570e+00 -1.253733354616726414e+00 -2.253750604007875857e-01 7.404823668349148624e-01 -6.331602850431349294e-01
9.691187895164860677e+00 -1.711050118074468607e+00 -1.853440995849338080e+00 3.480471520466905666e-01 8.778744255194214086e-01 3.289371869690830286e-01
9.768868825669432709e+00 -3.796643524395713065e+00 -2.943325281593272891e+00 -4.519056219766029447e-01 -7.042697064010169372e-01 5.475267020627990755e-01
-7.835656184686751402e+00 -7.494843537726882055e+00 1.453436567663958900e+00 5.137446480729627174e-01 -7.733331015825175569e-01 3.715135940623859323e-01
-7.859571282606840903e+00 -7.698647364593416142e+00 -3.257716746210313818e+00 -4.784858213638572555e-01 6.181093911232204974e-01 6.236923114477493924e-01
-7.733612015268527706e+00 8.512857439390394632e+00 2.989290767849502650e+00 -2.573835072281651093e-01 -8.825315083024869445e-01 3.935630407701748434e-01
-1.179698172614213902e+01 1.281423141490297235e+00 3.214501352541910162e+00 -4.625120225458408812e-02 7.710208669296356732e-01 6.351280572050634898e-01
4.704211079612459656e+00 1.051859950039300173e+01 2.784359053472608814e+00 9.815885957095072945e-01 -1.581663888867566037e-01 1.070851166108553881e-01
-1.122569244836531865e+01 -2.416268119163289541e+00 -2.141761462172331321e+00 -1.880973338985472698e-01 2.317325484640098132e-01 9.544209862333464800e-01
5.077874626315903583e+00 -8.306744252459678179e+00 -5.040264297164237517e-01 -6.533525700396439762e-01 -6.408953954056741953e-01 -4.029683751492124655e-01
8.668199269465699075e+00 -6.622124518703277118e+00 1.493310492673811662e+00 -5.294387853170671177e-01 -8.245270991582402953e-01 1.996237344498039135e-01
8.525845623803240514e+00 8.663011077407613669e+00 -5.519335746091971751e-02 3.758503756135935792e-01 -9.168846316483706405e-01 -1.343840295502113091e-01
4.670497059822082520e+00 -8.734305143356323242e+00 3.391656756401062012e+00 -7.035201365357267589e-01 -4.992669414743378109e-01 5.057587751484025063e-01
9.758542459614851339e+00 7.130540212313598580e+00 -3.508505600179232520e+00 4.055455025781299350e-01 -9.133223670404723160e-01 3.708233005409271310e-02
-1.160924760599617755e+01 -2.863674624348480968e+00 4.081051753054237285e-01 -1.793863688638206166e-01 7.208650536222899197e-01 6.694580682402642147e-01
-1.351437018182754191e+00 1.030788217675002549e+01 -2.859742855894173097e+00 -8.220714651861842359e-01 -2.961550738200383059e-01 4.863030725558783463e-01
-9.454802970812055563e+00 3.443338550927820485e+00 3.148305445834398419e+00 2.457291928475688614e-01 9.009885562003291382e-01 -3.575427042725504712e-01
6.189047574996948242e+00 -6.541337490081787109e+00 -3.391646206378936768e+00 6.538579693228199208e-01 7.540528803066707253e-01 -6.224154283316020442e-02
-8.852359256973475254e+00 2.462694366149593694e+00 -7.670213281648166070e-01 1.622750874339547178e-01 -6.365267327937292885e-01 7.539897309892507060e-01
2.834465405537190730e+00 -1.191997833863334755e+01 4.785455336132394266e-01 -8.011478596360038784e-01 -3.000665192759323641e-01 5.178051670370584780e-01
-8.593625656555611059e+00 -4.262414630461587528e+00 -3.099467126376789228e+00 3.767831784808465811e-01 -7.929855204863140994e-01 4.787571416834638383e-01
-1.079256848794130974e+01 2.363508491756956431e+00 -2.817675153090763995e+00 -8.809738837094166497e-02 3.972123225401600899e-01 9.134884897930960479e-01
2.565192124439778620e+00 -9.984898048792649305e+00 4.785455336132394266e-01 -7.599608956632617485e-01 -4.286409785400788763e-01 -4.885963043033549891e-01
2.138274225681924712e+00 -1.144946896517124912e+01 3.311547405849217363e+00 -5.693365338535180120e-01 -2.930750009349876728e-01 7.680904601976377144e-01
-7.561005111914155918e+00 -8.058499419016889931e+00 -3.460516927299497336e+00 -7.330082921288176845e-01 6.783580250429072089e-01 -5.029148566387862257e-02
3.518020037936536504e+00 -1.098000041513128622e+01 -1.090322440642728097e+00 -8.293109543054966171e-01 -4.276233590740835533e-01 3.596965441078132653e-01
-9.115107571659557095e+00 2.868810413536638126e+00 -6.417830374326739529e-01 1.673094187634872332e-01 9.580618328552622520e-01 2.326479804748790847e-01
8.829317654398328941e+00 8.637912097338402262e+00 2.852039936171734791e+00 -7.158850673535481768e-01 6.056770010610060817e-01 -3.473671555083351903e-01
-8.839072777576708617e+00 3.253523597006719115e+00 -4.914322282308766221e-01 6.098119373435871571e-02 9.089503851253398770e-01 -4.124202848930066390e-01
2.547707227927950235e+00 1.184894176569571300e+01 3.031072239448497463e+00 9.760229266400326509e-01 -9.761564842444586665e-02 1.945518744594876281e-01
1.165797433466637756e+01 5.557264566173779619e-01 -1.231429655390929190e+00 1.602911511764010810e-01 9.145062128783962851e-01 -3.714635021928229253e-01
1.327659593151297557e+00 1.090114442548454932e+01 3.300083968004764223e+00 9.965868185017694447e-01 9.786124290173654414e-03 -8.196917078937944467e-02
8.217804503705247399e+00 -4.892024553284154642e+00 -2.426950786876755028e+00 3.622603828277454197e-01 5.176511288312519721e-01 7.751159422004080257e-01
8.398123687638847645e-02 1.177710424983760973e+01 9.101188987613388903e-01 9.960832371790622197e-01 -2.274413705179294254e-02 -8.544523884131385860e-02
-6.467923423456894305e+00 8.079956203776628598e+00 -1.388622609929338836e+00 -5.291760669749731028e-01 -7.331147531477018031e-01 4.272182684039658729e-01
-7.491170680989256425e+00 9.451446597398682314e+00 -2.875820000931362141e+00 -5.185907941001175470e-01 -8.206930627256268096e-01 -2.398467949934708077e-01
-6.226924320074120445e+00 -9.628098981779626087e+00 2.379195169316399738e+00 -7.045331004541014464e-01 5.809196288617808346e-01 -4.076340211116118439e-01
-2.853429331712016292e+00 -1.094083772941311494e+01 -2.981451126360368242e+00 8.772589909293467825e-01 6.669900570290238084e-02 4.753608160880201661e-01
6.379038728097975230e+00 -9.098953660385424413e+00 -9.389765914891153864e-01 -5.632514412976393769e-01 -5.363605369822299629e-01 -6.285421133418712669e-01
-3.998855670197768664e+00 1.161314772546117169e+01 6.717310267534801760e-01 9.636032157809374388e-01 2.422143308147199914e-01 1.131417716169120513e-01
-1.819809141256101492e+00 1.006347036907368064e+01 -1.851718648059859973e+00 -7.730339948857454235e-01 -1.565499656100787784e-01 6.147442972638855752e-01
-3.297563366807886531e+00 -1.055571626453696332e+01 2.223190703944965207e+00 9.433453349322602488e-01 -6.521398944663565900e-02 3.253409206386370101e-01
-8.180364408991128045e+00 -5.830559778246376723e+00 4.658814921418580335e-01 3.816318196738410773e-01 -7.260653949040359878e-01 5.720019200450983110e-01
9.682934183370699444e+00 1.678197835389156900e+00 -4.855432301717130805e-01 2.678245864686463196e-01 5.265732701763344847e-01 8.068398738403422810e-01
7.986565716976251394e+00 7.628294917729802727e+00 -2.720572430006519493e+00 3.974294327795678816e-01 -8.422896785583514623e-01 -3.641400051554068429e-01
1.033751692282916856e+01 5.921325090638890565e+00 -1.390634052116340724e-02 7.192780714730581670e-02 -9.779516561190625401e-01 -1.960534336678718959e-01
7.018747174998450689e+00 9.190001901830630260e+00 -1.866491562733040954e+00 5.281883696901120695e-01 -7.877479538112156510e-01 -3.169703572739011599e-01
7.614611034768948628e+00 -8.730995418520315354e+00 3.185519867889829548e+00 -5.660673883024789493e-02 -2.621693049393605812e-01 9.633602299589789641e-01
-1.092783590881229294e+01 3.163794345522419338e+00 -2.702537731916677455e+00 6.702724241212913714e-02 2.212114777728574344e-01 9.729197453419138331e-01
-3.836679647126163495e+00 -1.227109941624683387e+01 5.233965116755662228e-01 -7.269661727369457482e-01 8.310323526072230238e-02 6.816260235535306355e-01
1.074768025856408471e+01 5.314627718817616753e+00 3.161410080643780596e+00 2.031071249638570497e-01 4.509654445076021201e-01 8.691246536883976415e-01
-3.906218495580739081e+00 -9.777271965030429612e+00 -4.617217125356063434e-01 -8.720503127632128759e-01 3.008726477416516221e-01 -3.860102354219517862e-01
-6.627588149290559727e+00 -7.375288450045637489e+00 -3.152186212596891135e+00 5.813493735994511580e-01 -4.969765713054790646e-01 6.442415644686206866e-01
1.370987561768168828e+00 -1.067206723378003907e+01 6.211931338605776176e-01 8.054826332956512847e-01 3.509614011119400745e-01 -4.775184000524453909e-01
-2.101517277041759613e+00 -1.182053966950656942e+01 -2.121178978512348490e+00 9.797824585259394814e-01 1.833898898394828725e-01 7.996550674839586481e-02
-1.010650860665049500e+01 1.216405595162552533e+00 -3.269869930025350424e+00 -1.886456207108065664e-01 9.730558719067935458e-01 1.325711127446115578e-01
-8.677077241897823257e+00 -7.773808262043810480e+00 -3.497176739992359451e+00 -5.439317506468573926e-01 7.153345603995096003e-01 4.386738165611042128e-01
1.109830296021887008e+01 -1.742660676784177909e-01 4.595151220029964345e-01 -2.817427399439146329e-01 -9.404976099212578600e-01 1.899612439980776779e-01
1.055789994905256179e+01 5.648495454387980175e+00 -3.223480886287239500e+00 7.550184869923702857e-01 3.130640883551936982e-02 6.549557184005460053e-01
-5.170458231718244591e+00 -1.165657490397027729e+01 1.535188273808630655e+00 -5.052185288338191249e-01 -3.095697404575791234e-01 -8.055562140012443306e-01
8.243895819732733443e+00 -4.708351887158352511e+00 4.813547199996781600e-01 -4.728274109351219279e-01 -8.551556521431712410e-01 -2.124689390851672854e-01
-8.952634955384350945e+00 -2.238555022686740337e+00 -8.607514321192526463e-01 2.295962370947521661e-02 -7.779746051162208520e-01 6.278760781184288264e-01
-8.845682782659634924e+00 5.048634025410699167e+00 9.122653661739604791e-01 1.320151950035769184e-01 5.129830957543525249e-01 -8.481864958595181081e-01
-6.336066411296108924e+00 7.381867740437248138e+00 -2.899401576134037928e+00 -3.482461203750147199e-02 -3.405920914196192140e-01 9.395660028219664506e-01
-3.961542013310388022e+00 -9.885614621950223224e+00 -1.859188913049278913e+00 -6.529793680120167254e-01 7.178055401396172819e-01 -2.416053631348024922e-01
1.041335644266230176e+01 -1.228194129483741737e-01 3.517614101622594802e+00 3.212366222965656326e-01 8.902364479759758975e-01 3.229335832498861358e-01
8.376601817415588513e+00 -8.210782804042809246e+00 2.085566139492707194e+00 -3.765545810130456750e-01 -5.636478814438335982e-01 7.351922967917766671e-01
7.535856775332359092e+00 9.689268934519864374e+00 -3.474244920341778453e+00 2.961526250671729921e-01 -8.311469548416241526e-01 4.706255009275607248e-01
7.921967099649599220e+00 8.617341326276813263e+00 -1.387306390867979022e+00 5.648041454098091663e-01 -8.235964281635492767e-01 -5.181892361038405170e-02
9.175000312136047498e+00 -7.236293115169518231e+00 1.777232921395020204e+00 5.517777496771129053e-01 8.163151377714122914e-01 -1.707949378831277454e-01
-9.078867300217769554e+00 5.419742021722983694e+00 3.424101507824403257e+00 -4.073362290078580417e-01 -9.124798894132376548e-01 -3.817915601559791067e-02
6.797783439704090824e+00 8.444974398619105926e+00 -2.270631240477342772e+00 6.071708554132493330e-01 -6.962384781143796664e-01 -3.828779621886270190e-01
-9.308753974201868786e+00 -3.949079248957621857e+00 2.920148333213159475e+00 -1.094194923555325688e-01 9.632869413779274748e-01 -2.451645228482595140e-01
4.804302364028872674e+00 9.759139976420112106e+00 -1.946083424056576527e+00 -6.060621092181904812e-01 3.168058124258034125e-01 7.296045483570020584e-01
6.485006261491372825e+00 -8.050303232140834098e+00 -2.884411409313367258e+00 -6.118811219774958898e-01 -6.454994293029989727e-01 4.570907780048331648e-01
9.376389360994853206e+00 4.957625196728153938e+00 2.375240759986773753e+00 2.302103943436374922e-01 -9.517761750315152369e-01 -2.027937054706719922e-01
6.821779193138152841e+00 9.160724959023234248e+00 -1.348160612829078620e+00 5.820366935735744596e-01 -7.573478390107585279e-01 -2.960701573608448545e-01
9.619643535647060872e+00 -4.927637537903070686e-01 -4.038686513773148690e-01 2.941645560839444840e-01 9.149671514255548477e-01 2.762287562078605263e-01
1.186481270193270632e+01 6.547071222543995317e-01 1.822599709325760209e+00 4.194052455119062078e-02 -9.708644279855054293e-01 2.359306145305187230e-01
2.941809495256361373e+00 9.551691904139799405e+00 1.940604750620563923e+00 -8.366770391588448375e-01 2.286705488676834541e-01 4.976759108344919191e-01
-3.048320683285038690e+00 9.566806512402056484e+00 -2.089986958616707469e+00 -7.362321527340682792e-01 -4.210369620917825406e-01 5.298019383062714249e-01
-1.022227142868128524e+01 -5.665690624826657640e+00 3.435501486907870383e+00 -2.508813588990648213e-01 9.318542480784109960e-01 2.621186832241794717e-01
-2.274880242652567830e+00 9.577865051051167811e+00 1.852166438279645444e+00 -7.863516667633231316e-01 -3.075158219527280301e-01 5.358032058762635108e-01
-1.024706976434071493e+01 1.019645575660211856e+00 -1.404112656947143378e+00 4.504705923221311026e-02 -9.309032368410280478e-01 -3.624774835674988149e-01
-6.361259633383138379e+00 1.037922256336551108e+01 5.001666154873173342e-01 -7.942408084053990125e-01 -5.522608875607603052e-01 -2.533563702260902550e-01
-7.010893750170331451e+00 -6.561363261772355848e+00 -3.215472770071584385e+00 5.249199041613163974e-01 -5.745392089501282218e-01 6.279839102988509225e-01
-1.050037443780145630e+01 4.631956767807457354e+00 -3.997511541652954553e-02 3.241766634301312955e-02 8.576641782093743505e-01 5.131873462248576212e-01
-3.313437008690660157e+00 1.143605752525100172e+01 -1.928437240756342597e+00 6.526688045671251714e-01 -6.760302835764071538e-01 -3.420621101971429989e-01
-8.226299629033970717e+00 6.894707696144506848e+00 3.254825365649215652e+00 4.536388594471988944e-01 8.702632771238205667e-01 -1.919729504100844697e-01
-8.131362007243078338e+00 5.694935519862609041e+00 -7.399943510696596061e-01 2.531234431782874439e-01 7.485625355776599488e-01 -6.128479851016179758e-01
8.582760503837652877e+00 -4.068468130520779269e+00 4.813547199996781600e-01 1.639735890917748684e-01 3.778644473776502366e-01 9.112250663191531208e-01
4.739896297454833984e+00 -8.363924145698547363e+00 3.391656756401062012e+00 -6.915663380948926520e-01 -4.739341874959525636e-01 5.450893375737337898e-01
6.043420820716628228e+00 8.702204716398139084e+00 -7.975995485895983617e-01 5.684664543730676423e-01 -6.524087771825280990e-01 -5.012072203267939896e-01
-9.492214791205492830e+00 2.990923735642784020e+00 2.276430044344582626e+00 1.923628761401558473e-01 2.195724238025482389e-01 -9.564436599134114037e-01
-1.113183463355645841e+01 2.499898123250388515e+00 -1.732901926146963589e+00 7.964136781350925065e-03 -9.613025874686594863e-01 2.753795705047637488e-01
-9.327025811867759586e+00 -2.410116656208832531e+00 7.164384380313333356e-01 -6.675242633853244179e-02 -2.815693762613966089e-01 9.572161719954834780e-01
9.669425460261130922e+00 -5.728789689166832844e+00 -2.886793398851214221e+00 3.107909975968467520e-01 7.951739109184379206e-01 -5.206797549429331706e-01
3.722963019400275186e+00 1.199375109070598810e+01 -4.648589795574435413e-01 -8.713622030925826101e-01 4.818816100712183803e-01 -9.229314653218238795e-02
-9.367660873137781508e+00 6.498777759187374770e+00 2.779421767550675160e+00 2.904821408896490764e-01 8.119831949232368951e-01 5.062641770720294199e-01
-6.769801334325562081e+00 7.481498337220337191e+00 2.504401758482998730e+00 5.728958873724991907e-01 7.654926444947890429e-01 -2.929356814320357993e-01
9.641398739627927483e+00 4.358575773131276421e+00 2.853076802941449053e+00 1.489032324718017053e-01 -9.359549621088906202e-01 -3.190864087722848907e-01
1.047150039384626297e+01 6.321574945049601268e+00 -3.223480886287239500e+00 3.780228089605071062e-01 -9.041635692177462102e-01 1.989648109717739033e-01
-6.064360744779899726e+00 -8.091167163087408909e+00 -6.569822271560152860e-01 5.539150091552189625e-01 -4.612909550582331430e-01 6.931008710238625303e-01
-7.333421225737577487e+00 8.984220427639233009e+00 -1.197505074166727579e-01 -6.272222790535829651e-01 -7.538447513939628974e-01 -1.957301802344319774e-01
-8.780412849556876509e+00 6.281857819497838946e+00 2.067813045081472900e+00 4.540573993455711554e-01 5.037274553753336992e-01 -7.349085173003697680e-01
-7.635114962840886754e+00 5.853401781941835580e+00 2.012351047762903189e+00 4.322112684726129306e-01 8.408512609631657586e-01 -3.258259908938341276e-01
-1.079961720383972335e+01 1.266987707998634693e+00 1.569762077688715340e+00 1.866423141541322661e-01 -9.783914581146840872e-01 -8.896516877639551457e-02
-1.147282252888526521e+01 7.608242798344968527e-01 -1.192556884680580964e+00 -1.144793680621935261e-01 6.423793655156189164e-01 7.577883774826793539e-01
8.881183722703848815e+00 5.454661093747998457e+00 4.747840505006376555e-01 -4.316478895637818752e-02 9.250561057800915643e-01 3.773698479652598525e-01
8.899300659922010581e+00 8.232896032694542399e+00 3.160373213874066334e+00 6.202441312989875888e-01 -7.842985263909212357e-01 1.315443234022030568e-02
4.989217448500304464e+00 1.021394245185955185e+01 1.828448072933919866e+00 -8.619243148807540500e-01 4.077354173008251870e-01 3.013939363953178074e-01
-2.191650117041065382e+00 -1.060733368992243086e+01 3.510436359385236571e+00 8.773632172631719017e-01 -2.081305773372384427e-01 4.323371922133046330e-01
-8.898351530212435634e+00 3.874450004586280638e+00 -5.895032270479426684e-01 4.744158578645450708e-02 7.800656312964637795e-01 -6.238965513673848662e-01
7.727911912544853656e+00 7.614236657256931551e+00 2.522111709564532234e+00 7.130496679116744563e-01 -6.152969653843392006e-01 -3.361098265148972364e-01
-2.726368946141871419e+00 1.029121343972304281e+01 3.393832707582013608e+00 -8.568837592944190673e-01 -3.646693857023323160e-01 3.643713245975150894e-01
-9.759021217262522363e-01 1.206024227647934310e+01 -3.184773441539885397e+00 9.731806368217162939e-01 2.294106795008342137e-01 -1.703491256931522271e-02
1.079499466400536889e+01 5.708772492300893120e+00 2.853076802941449053e+00 -1.478728639532605679e-02 4.421804337096985615e-01 -8.968042150912123311e-01
8.132226501177322930e+00 6.915425228835210270e+00 -2.779114480807346244e+00 -8.233940095794431424e-02 7.740725458510978596e-01 6.277196163969123166e-01
-1.064265525937289780e+01 4.522568373303398559e+00 1.817251111055818491e+00 6.823058432740145007e-02 8.263689046948889949e-01 5.589803401871221711e-01
-3.831054773329545249e-02 1.186221284270589393e+01 8.217585369116708893e-02 9.981195077835824936e-01 -5.914612490259829602e-02 1.609919534838362767e-02
-1.051237902499151389e+01 1.284711442490579225e+00 -3.613217977717797513e-01 6.103049645786298022e-02 -9.798437294355721860e-01 -1.902144694493459187e-01
-9.469013488339060203e+00 1.308843071744106634e+00 -1.122177341210537360e+00 1.268622455914708569e-01 -9.296746120132087787e-01 3.458483575522355857e-01
1.012951497248198685e+01 -4.671433476296738441e+00 2.883417172262484840e+00 -4.193632548409002014e-01 -8.245565963619739813e-01 3.797905737182044050e-01
-9.680347894114218477e+00 -7.604447886149314328e+00 6.858380105268584437e-01 -3.927699967382847213e-01 6.246064360282912453e-01 6.749803921109440719e-01
8.975985692342717925e+00 -4.752579769705944202e+00 3.050226903332421191e+00 4.824878028253055673e-01 7.230925486133535918e-01 4.943103137348581200e-01
-2.507566732473048177e+00 9.480043576975850428e+00 2.160499656377332212e+00 -8.649089793538883297e-01 -3.393009878446120453e-01 3.698747045699196656e-01
-1.035308792509811227e+01 2.937626271743465800e+00 1.598689628097467619e+00 -2.687711945325151341e-01 8.941330663336093387e-01 -3.581732886165885921e-01
-8.220452873568159902e+00 -7.439563433051596952e+00 -1.703572869773901433e+00 1.710986122584783053e-01 2.486149485166552417e-02 9.849401864869579137e-01
-1.162750448436505835e+01 1.344855899107979313e+00 6.710211397073756467e-01 -1.274370284098861328e-01 6.920137605452175711e-01 7.105468028259113167e-01
-3.269151896977463778e+00 -1.189346720622047648e+01 -1.548976749061542701e+00 -4.398066352454134131e-01 -1.196014258054953761e-01 8.900930415071226509e-01
-9.354936587991851127e+00 -5.382556508593494549e+00 2.235356955354905306e+00 -1.884350487540755736e-01 9.627526550929129678e-01 -1.939060533160212874e-01
1.156782507896423340e+00 -1.063037443161010742e+01 3.391656756401062012e+00 9.367052009972699489e-01 2.343246542132178256e-01 2.601448113119307903e-01
1.039062990296061173e+01 -4.864681247787929763e+00 -7.725058197176550845e-01 -4.954267826720676338e-01 -6.971885908015797995e-01 5.181509161116200080e-01
1.001455479235612600e+01 4.617907620183610895e+00 -3.434560371647696453e+00 1.363659510959935039e-01 -9.868859859075723717e-01 -8.637348088924019784e-02
-2.614606243676814046e+00 1.142985932709792074e+01 2.777166152177350522e+00 9.867871005538331186e-01 5.647805410651990377e-02 1.518599604402043890e-01
1.070451390358576127e+01 2.800552032069723918e+00 -3.483618970627072375e+00 -2.045861392718191854e-02 6.719050976918423679e-01 7.403546344907246946e-01
-1.008319187165383823e+01 -5.291882044061400059e-01 -2.864978809994824793e+00 -3.094340977608630028e-01 9.289057211274818204e-01 2.034322993026272952e-01
-7.952909916699764992e+00 5.761973455601465233e+00 3.476855520943099798e+00 4.661114758952026316e-01 8.567943050683094475e-01 -2.205529660678097748e-01
9.381711316361720066e+00 -3.591605850842943148e+00 2.460084946384408333e+00 4.532964978276210477e-01 7.931993590582676612e-01 4.066411954620033353e-01
-8.081791728795407082e+00 5.575154021435510643e+00 3.168522243240768255e+00 4.716385467509341956e-01 8.575308389169302714e-01 -2.054213755311083967e-01
-9.624804193068989377e+00 -4.760324299117706381e+00 -2.934078959125336006e+00 -3.367179934535332597e-01 9.083349166508274397e-01 2.480900483243138055e-01
6.907002714742816352e+00 9.841552849868993036e+00 -1.330832445996956714e+00 -7.054858760778096594e-01 4.255528043289710238e-01 -5.667402309546005768e-01
-7.992555485307248020e+00 9.340583300678520828e+00 -3.059756009069632743e+00 -5.285541502902968425e-01 -8.100313522002934308e-01 -2.539285700024052628e-01
-9.833673701859385829e+00 -5.844767415636288987e+00 3.435501486907870383e+00 2.420539100153368817e-01 -8.171414067324597186e-01 5.231537307996415587e-01
5.182738693327348045e+00 -8.070523873129193504e+00 -2.129862484262098565e+00 -6.661873249714838074e-01 -6.343817694632466475e-01 -3.921150578848237589e-01
-3.272973781506705482e+00 9.500573055426372093e+00 2.673275524586419039e+00 -8.266026997182832625e-01 -4.100506004568399976e-01 3.854691711193394821e-01
-2.540459510585706404e+00 1.002870161422391426e+01 3.437382016423590203e-02 8.501276875407265399e-01 6.043067217909071226e-02 -5.230975518358307319e-01
5.124796011361913983e+00 9.255683751381223345e+00 -5.216823116902576940e-01 6.215047306971023255e-01 -6.367279431998255079e-01 -4.564092418757996206e-01
-9.745214178349675294e+00 6.242608102128019532e+00 -2.939416111818327515e+00 -1.573324129134202332e-01 -9.085540084536325445e-01 -3.870092060528764200e-01
3.321231743819670790e+00 -1.168688131983622291e+01 2.871702440474840579e+00 -6.843756200945241286e-01 -3.153469356156716197e-01 6.574087927751202098e-01
1.014582579519749395e+01 -4.531436010147146476e+00 -2.835426849889906009e+00 -4.128461869838514486e-01 -8.422551261538692158e-01 3.466472679258044143e-01
6.668002790685049419e+00 -9.051688179717817917e+00 6.203229709602446906e-01 -7.064503630331049333e-01 -6.934843213122731109e-01 1.414474484197232595e-01
-2.990842316940512724e+00 -1.154332027754400691e+01 -6.197882090550150824e-01 7.700966326661524697e-01 -2.362910578821814100e-01 5.925518646677038204e-01
6.017774363647741431e+00 9.259414056337075039e+00 -3.208740106390834956e+00 7.501325149582018792e-01 -6.335303500460067738e-01 -1.895798132003173597e-01
-1.039755588399863484e+01 5.059014381332870514e+00 -1.945060440361174425e+00 1.148236296452751770e-01 8.738063267408175960e-01 4.725230549114023404e-01
-8.912780322870599292e+00 5.198020141731670707e-01 -1.921410067273352507e+00 -1.677259028401940910e-01 9.361854397120350502e-01 -3.089091193014946723e-01
-1.129570334540137466e+01 -2.554621525372246515e-01 -2.635253715238836225e+00 -2.624420791619460624e-01 6.916241100771201022e-01 6.728894749103945250e-01
-8.748632002369621574e+00 -5.911062864227746516e+00 -3.079030268505150048e+00 -2.868596002089460195e-01 7.120290002723169698e-01 6.408792963883046534e-01
5.872800856117018853e+00 8.832704079343695724e+00 -4.892687891082478924e-01 5.875195723909170109e-01 -6.088688109613881183e-01 -5.330098714808754190e-01
-1.163734310255774673e+01 2.677884173739156562e-02 -2.018592494449880537e+00 -1.808790978869617705e-01 7.179911658759273729e-01 6.721394480847894259e-01
7.333939529358483256e+00 8.006748439445209087e+00 -8.291871761011058162e-01 4.100155790608990269e-01 -8.146571873803883923e-01 -4.101474027430022096e-01
-4.838373303413391113e+00 -1.237486481666564941e+01 3.391656756401062012e+00 -6.730201180080149781e-01 4.657680504882748540e-01 5.745468161088609360e-01
-2.274104336830171214e+00 -1.086427155768510922e+01 -2.295069766597082506e+00 8.853215282899686844e-01 1.451113251102509050e-01 4.417561486511096813e-01
1.031165717973064666e+01 2.529353749914216465e+00 3.263978292320216745e+00 5.659537735006567316e-02 9.427765266634247077e-01 3.285869504941617003e-01
4.343847843914228513e+00 1.016394842338049287e+01 -1.188304259454917799e+00 -8.530674499593794424e-01 4.151483200261739670e-01 3.161135843320354577e-01
-9.020322837671624683e+00 1.184493991376059485e+00 -2.846401794148657682e+00 -2.206423457913637698e-01 9.561596216399371739e-01 -1.925505990358284403e-01
-9.619745839752757988e+00 4.419907139577739841e+00 3.302690272339927624e+00 -3.607671720842769436e-01 -9.325008492892178369e-01 -1.700628181588144730e-02
9.521531725353034048e+00 -4.959594891437391517e+00 -2.947235471767395865e+00 -7.906516733497401805e-01 -6.069796988556109829e-01 8.028434845228225869e-02
1.008629761049071405e+01 7.097523532903577070e+00 4.747840505006376555e-01 3.510131303864850727e-01 -9.149840367551846931e-01 1.989823981649312123e-01
-7.000898476820466954e+00 -7.647294127268843056e+00 -3.460516927299497336e+00 4.161929195341501075e-01 -4.829588388395655851e-01 7.704117170165438733e-01
-1.014788073973446814e+01 -5.227537433164607172e+00 1.950249582776306445e+00 -2.348103286045911675e-01 9.707598443869890348e-01 4.989422918888401781e-02
6.432870870012173725e+00 -7.853796483965260755e+00 3.185519867889829548e+00 -1.611371016732478512e-01 -2.982629490252589610e-01 9.407837411983165365e-01
4.328354910605448913e-02 1.044743215371880751e+01 -3.211770841495948048e+00 9.113874269806496731e-01 1.798485449811551284e-01 -3.701722015626680018e-01
-1.192222051345011996e-01 1.190329086114678603e+01 -3.211770841495948048e+00 9.914992011234914360e-01 1.291261477318183248e-01 1.599287789670575388e-02
1.857031802503959828e+00 -1.158992319497453849e+01 1.433040497942043912e+00 8.889989880703801362e-01 4.060898653141023495e-01 2.115935265999746295e-01
-1.132271212075911748e+01 -2.147792884654775136e+00 -1.833430956085981611e+00 -1.061740870805280984e-01 6.097644980177040486e-01 7.854389347300233526e-01
-9.488101938496763310e+00 5.124136875387266699e+00 -1.403568640875435758e+00 1.848514709541244361e-01 9.147195235506966338e-01 -3.593301085649284188e-01
-9.410727315669037196e+00 2.190430009410182954e+00 3.022604436796292759e+00 -1.994433897484783336e-01 -9.647344421770535083e-01 -1.717841388573632666e-01
9.481983979219952730e+00 -5.832686332023058640e+00 6.532897150523253593e-01 -9.068536890028754405e-01 4.186352427367334705e-01 4.858930212127174353e-02
2.451133438900521710e+00 -1.009632585819380779e+01 -3.498377036023037512e+00 -7.950900383414567507e-01 -5.453162729678959764e-01 -2.654467806672067831e-01
-4.054800871037438803e+00 -9.990986574007107990e+00 -2.784180639924584089e+00 8.258977073175185479e-01 6.104534248629515936e-02 5.605055246903435373e-01
1.401477769017219543e+00 -1.030056047439575195e+01 3.391656756401062012e+00 9.373343085962048127e-01 2.671780185957261522e-01 2.236521860115308069e-01
8.861673172540367460e+00 -6.133232977957007392e+00 1.864631979543474261e+00 -4.763921849327411029e-01 -8.775545436136085176e-01 -5.430017604133953457e-02
2.248470181442360882e+00 -1.077562321324538708e+01 2.791593089922995929e+00 -5.835845501211962549e-01 -2.930571624183800905e-01 7.573285762567845136e-01
-9.724452127136791191e+00 4.814200567045086032e+00 3.302690272339927624e+00 -4.109387593195208965e-01 -9.116572590712791468e-01 -3.221501447360259392e-03
-8.303642869128159631e+00 -7.739057636042360855e+00 2.833472104827338356e+00 4.974904303048702237e-01 -8.525244443137549588e-01 1.603288607911825259e-01
8.226376255030194429e+00 -5.360634473121081101e+00 6.532897150523253593e-01 -5.236949299515653022e-01 -8.469916785196960340e-01 -9.137131312076487988e-02
6.023923483652140476e+00 8.776223456271285528e+00 -1.991965719614912089e+00 6.317696683548696956e-01 -6.773273764974151456e-01 -3.769545213867403488e-01
-1.034590187955032903e+01 1.907708889991709178e+00 -2.071120743942103104e+00 -1.651083313653713691e-01 9.602218317868034259e-01 2.251960760620365098e-01
1.123779928833627828e+01 1.594448519816765941e+00 3.219998201308556407e+00 -1.073840021135448464e-01 -9.932822105616115893e-01 4.311758657342235068e-02
2.801612489761599600e-01 -1.295634487418008796e+01 2.790154686689101826e+00 -8.648607611127473449e-01 -2.127906160408567227e-01 4.546823260392156563e-01
1.180244541893954846e+01 -4.360502529146041972e-01 3.978948327881902391e-02 1.508128468433845848e-01 8.584505365479540018e-01 -4.902225632582853931e-01
1.061808661131643916e+01 8.099711474996158789e-02 2.204879411129375466e+00 3.052624992546571492e-01 9.065159915475123897e-01 2.916222961596570684e-01
1.216137754276206806e+01 2.134279444080640964e+00 3.224224481672494314e+00 -1.831065715979126873e-01 -9.825543699550752796e-01 3.254064412152180702e-02
1.048241272568702698e+00 -1.287711596488952637e+01 3.391656756401062012e+00 8.926418891256940880e-01 2.032374844465593411e-01 -4.023493291829208784e-01
-7.824284705886840996e+00 -5.851844410581419353e+00 -8.117789329138375143e-01 4.060099230629559686e-01 -6.527268102714723907e-01 6.396121117734107075e-01
5.661136865615844727e+00 -1.070789384841918945e+01 3.083323478698730469e+00 -4.817531669246762904e-01 -3.509881269337701837e-01 8.029453411718439071e-01
-3.138578011922129818e+00 -1.169400845809658662e+01 -2.981451126360368242e+00 7.045695466675947483e-01 -6.222217817241479376e-02 7.069017997233422168e-01
5.567868300640043344e+00 1.040472362700376863e+01 -1.186758080162261919e+00 -8.595532141266272186e-01 5.004113905309468535e-01 1.037145713555652354e-01
5.978445977022269986e+00 1.067940772687986950e+01 -1.281746287435023390e+00 -8.110372092745481432e-01 5.816457209244745297e-01 -6.250520380257354458e-02
-7.391534692080464986e+00 -6.634175290557844384e+00 -2.620332373539073778e+00 5.054213045818793937e-01 -6.072736704487872172e-01 6.129991794891808121e-01
-7.745835071833577778e+00 -6.865725507232649072e+00 -3.236993802944286180e+00 4.667484809096453802e-01 -5.068471510855248052e-01 7.247425894792063339e-01
4.415040637020328340e+00 9.868893882564556463e+00 -3.306570363141739799e-01 -7.299343922715636479e-01 3.722670640008677867e-01 5.732477789222709674e-01
-3.519645019112366491e+00 1.133194562648739456e+01 5.754749179162417239e-01 9.693608111742842981e-01 2.169145762609184791e-01 1.152722185310903619e-01
-1.068322524428367615e+00 -1.058573770523071289e+01 3.083323478698730469e+00 9.505703408994408132e-01 -9.123805006431685502e-03 3.103752296568229041e-01
-1.337556511163711548e+00 -1.056404399871826172e+01 3.391656756401062012e+00 9.481691112189289949e-01 -8.553228624449829565e-02 3.060385017282887810e-01
4.830257424452304882e+00 1.010635105260764988e+01 -2.932363554229228120e-01 7.170260166848437811e-01 -3.841607604615540073e-01 5.816306401133511939e-01
2.434562465674834364e+00 -1.055565716441019752e+01 3.180035718177172122e+00 -1.602362494146187255e-01 -1.256440381031453390e-01 9.790494982699655679e-01
-9.996385053964573331e+00 1.560216313726455084e+00 -1.077533262316128670e+00 8.463032385370707067e-02 -9.822674561308308849e-01 1.672971993509831945e-01
4.826903765775450994e-01 1.200786232403954301e+01 1.076771860329803543e+00 9.935364295674090629e-01 -7.807022989410988822e-02 -8.240389752145203806e-02
1.152716947080586474e+00 1.245574988394394111e+01 4.025171087854808594e-01 9.069639780122067396e-01 -4.182046909110898603e-01 5.021134421854432650e-02
-7.861727401614189148e-01 -1.283637022972106934e+01 3.391656756401062012e+00 8.685702356193950591e-01 1.357985667817833975e-01 -4.765967845633058420e-01
1.188151754785739378e+01 1.603638802472134195e+00 -4.855432301717130805e-01 -8.705992484864051584e-02 -9.553586369213401541e-01 2.823303815481929546e-01
1.187101518213133744e+01 -1.062286823050057505e+00 3.043144335313934690e+00 -2.698950601283520156e-01 -8.168415812545647414e-01 5.098298614752333480e-01
5.871354579925537109e+00 -6.623812437057495117e+00 -3.083315491676330566e+00 6.181349597987265687e-01 6.353016135983141632e-01 4.629265937856724134e-01
-1.048658794240595782e+01 -4.207298786900124377e+00 -2.277217369822818860e+00 -2.345751956079138445e-01 5.466398750034300313e-01 8.038403601846221269e-01
-8.912246892739265292e+00 4.458053291484849190e+00 -1.178798546642419121e+00 1.025125746786059860e-01 8.311518631120530243e-01 -5.465141832360128626e-01
-1.476493254303932190e+00 -1.307926654815673828e+01 3.391656756401062012e+00 9.497060139020788716e-01 7.329933541431073174e-02 -3.044432534743457541e-01
-9.352586480958684945e+00 5.135575612983768856e+00 3.026801746060937326e+00 -3.741886386727391600e-01 -9.256188237593585555e-01 -5.668029455272647482e-02
-7.100422222828303376e+00 -8.754499180142268244e+00 -1.798934057095051831e+00 -6.400232489530273128e-01 6.697305018733147319e-01 3.766049596860471249e-01
-1.028179278175791822e+01 -2.641335255737216947e+00 -2.694665634250020148e+00 -3.389619081573618797e-01 8.481438009272984635e-01 4.071325555232783167e-01
-1.188627377462466939e+01 7.095265251891832436e-01 4.849262098751430661e-01 -1.099088380946719873e-01 4.924273871139501768e-01 8.633859598863111717e-01
4.742787554325420984e+00 9.464501534894793622e+00 2.082999004031496071e+00 -8.674389389819368024e-01 3.167253084597848045e-01 3.837118269208622534e-01
-7.617217734042318611e+00 -1.030805387792674921e+01 2.769994959396895773e+00 -5.482288566920946460e-01 3.996423089323652977e-01 7.346639678120102657e-01
4.523276545915441815e+00 9.513174386299436236e+00 -5.216823116902576940e-01 -1.806477051449853835e-02 -4.907719285891574135e-01 8.711007853142697099e-01
-8.270797018353587049e+00 8.239107548677740311e+00 9.968530189775223205e-01 -2.557450303320979446e-01 -7.870653905748896673e-01 -5.613577739905548647e-01
8.344916971503209879e+00 6.275573519331206995e+00 -1.667954159040719864e+00 -1.668516098194128550e-01 9.497573402713316293e-01 2.648047108746300338e-01
-1.306096982486367963e+00 -1.072535979206929468e+01 -2.914434517470819941e+00 4.040311679146055268e-01 7.185176430801237801e-02 9.119189324273215824e-01
-1.015389369003507802e+01 3.751233496072473805e+00 3.456638723536729962e+00 -1.857158216442659493e-01 -6.172136562141435079e-02 9.806630953680387508e-01
-3.829788029193878174e+00 -1.269843649864196777e+01 3.391656756401062012e+00 -8.479229058371631211e-01 2.475351943624492512e-01 4.687782773429312044e-01
-2.659211277961730957e+00 -1.295448756217956543e+01 3.391656756401062012e+00 -9.285772654889631328e-01 -3.971327568333068297e-02 3.690082895431205934e-01
-9.163666925894354165e+00 4.034101790077752270e+00 -1.136800756650051536e+00 6.928838779545890003e-02 8.634773782809614939e-01 -4.996057811052063702e-01
-1.144635213746599334e+01 1.323196640969688254e+00 2.810840688285315636e+00 -3.720706132328290006e-02 7.288442222988699148e-01 6.836678537193633387e-01
-1.962852984666824341e+00 -1.278739666938781738e+01 3.391656756401062012e+00 9.959465363994571829e-01 -8.982940023173020816e-02 -4.601683162953494090e-03
-2.307210773229598999e+00 -1.296523451805114746e+01 3.083323478698730469e+00 -9.089987856626458029e-01 -8.488984921262404670e-02 4.080623986163066097e-01
6.991923355341031487e-02 1.080165570021972954e+01 6.579988063395476594e-01 9.822208949966179103e-01 2.869964423497353700e-02 -1.855220845420544051e-01
1.029162585954207465e+01 3.028234149486379145e+00 -2.883460168215151720e-02 -6.054692740725318989e-02 7.159983327508238071e-01 6.954713919922094201e-01
-9.137377807249874806e+00 -5.373765624319354117e+00 -8.255824339200985573e-01 -2.283748759805580286e-01 9.265794895304307888e-01 -2.988233016389300611e-01
-2.227861333192273197e+00 1.144728686287519004e+01 2.090787306951500835e+00 9.770051332877767170e-01 1.888333105687199920e-01 -9.900984975744180072e-02
-5.900571703910827637e+00 -1.191252231597900391e+01 3.391656756401062012e+00 -6.032048400977978453e-01 4.208975241713658333e-01 6.774874131886177153e-01
-3.577428823392081458e+00 9.627656356970561546e+00 2.981608802288750582e+00 -7.940215382131440292e-01 -4.610401511228532923e-01 3.961966379290078888e-01
7.153785404756921373e+00 -8.529062758350889339e+00 5.014668561385868251e-02 -6.564274287979943168e-01 -7.178191268070036601e-01 2.320317476374404164e-01
-9.835299796012598961e+00 -7.350183038134574520e-01 -3.313040586432319579e+00 3.494865036933297864e-01 -8.946501590199705811e-01 -2.783168638472226508e-01
-3.508342613199180615e+00 1.089651380482331255e+01 1.090426722329858267e+00 9.673371382130689922e-01 2.534556779040001984e-01 -4.368108512088100109e-03
-6.392798542976379395e+00 -8.195261955261230469e+00 3.391656756401062012e+00 5.796477958470354075e-01 -7.928567584385797229e-01 1.881132461256813659e-01
-1.009007815345226433e+01 9.301769983183315604e-01 -3.463063223553870085e+00 -2.147751552601374070e-01 9.599820868276544017e-01 1.797387705894470944e-01
4.457649857051804609e+00 -9.122019758891621422e+00 -1.708417690872236161e+00 1.906593640011128854e-01 2.091354182704852072e-01 9.591201091331161832e-01
-4.215164244174957275e+00 -1.230554652214050293e+01 3.391656756401062012e+00 -7.607059247952483449e-01 3.919922244583807225e-01 5.173669799528922697e-01
-4.552455067634582520e+00 -1.242908239364624023e+01 3.083323478698730469e+00 -6.439480690520716921e-01 4.628069831055863781e-01 6.092130832088340497e-01
7.548208545190981056e+00 8.150113509695087188e+00 -1.387306390867979022e+00 4.534558170532279608e-01 -8.378441182552690547e-01 -3.039655498335955275e-01
-7.444473996406536287e+00 5.875758259740978318e+00 -2.897588508005022767e+00 3.440743096944672286e-01 9.341755069510416787e-01 9.449334167569979626e-02
1.084218072891235352e+01 -4.917326688766479492e+00 3.391656756401062012e+00 -3.612658690397233530e-01 -7.725765781872163673e-01 5.221229766094432900e-01
-5.086473262024260755e+00 -9.045267821068817327e+00 3.195032225109740498e+00 -7.428748134660286828e-01 5.890287802586424704e-01 -3.180913509431351205e-01
-8.883226708809351280e+00 -7.375722170606163530e+00 3.925954126272690470e-01 8.780765176187330101e-02 -2.499904615573111388e-01 9.642585677205198769e-01
-3.707438116948294837e+00 1.006303014008213381e+01 3.289942079991082124e+00 -8.834674452032604819e-01 -4.068692167053545305e-01 2.322557077094014044e-01
