2.043442792636366967e+00 -1.161807432822758912e+01 8.861802257600727151e-01 9.848821349875941378e-01 1.732258069176721982e-01 -0.000000000000000000e+00
-8.709159534447145745e+00 -5.099076995936608014e+00 -1.317372504570607283e+00 5.052553898680023359e-01 -8.629698668026207775e-01 0.000000000000000000e+00
3.120617165968519124e+00 -1.019747635315687972e+01 2.383116756439097372e+00 9.562277526404091565e-01 2.926234527174346178e-01 -0.000000000000000000e+00
9.370144649058763875e+00 -3.384196534126519662e+00 1.613249197333753049e+00 3.396918087436650024e-01 9.405368015513573265e-01 -0.000000000000000000e+00
-8.277741522456642187e+00 6.271810041363574229e+00 -1.145665235723196229e+00 -6.039062459072880307e-01 -7.970553595291648419e-01 0.000000000000000000e+00
-1.057855794095542379e+01 5.952133215596439264e+00 1.773364513724427383e+00 -4.903672756164639268e-01 -8.715158833919706138e-01 0.000000000000000000e+00
-5.150181487533660452e+00 -9.384865007319925567e+00 -4.824061940555407491e-01 8.766689128409906884e-01 -4.810941875123783684e-01 0.000000000000000000e+00
-5.354490934304669381e+00 -9.429825290645563740e+00 3.205907885915503464e+00 8.695897840836782633e-01 -4.937748549868676284e-01 0.000000000000000000e+00
1.205065897277959985e+00 1.060315628186491033e+01 -2.416051638764879606e+00 -9.936035539574910036e-01 1.129246543631779315e-01 0.000000000000000000e+00
-8.329936227972510210e+00 -2.715062658473318180e+00 2.847259011881593249e+00 3.098946389058323536e-01 -9.507709044651209140e-01 0.000000000000000000e+00
-2.509355595156582019e+00 -9.924640656833991770e+00 -1.682391488772056576e+00 9.694909714993136252e-01 -2.451270205043037942e-01 0.000000000000000000e+00
1.209080498124892245e+01 9.472653022861265981e-02 2.830444313785766219e+00 -7.834352080969766638e-03 9.999693109928281531e-01 0.000000000000000000e+00
9.770193333183405215e+00 5.158848280053835111e+00 -2.937714587913732966e+00 -4.669254904310951582e-01 8.842966619781404969e-01 0.000000000000000000e+00
-4.887321352385084694e+00 1.165238721673513389e+01 1.727981498519565839e+00 -9.221707735803662542e-01 -3.867829680249494917e-01 0.000000000000000000e+00
-9.549495274061673200e+00 -3.889279623449634293e+00 -2.340634308985436007e+00 3.771924573691611271e-01 -9.261348984374866422e-01 0.000000000000000000e+00
-7.832431353751449166e+00 7.283514573109895807e+00 3.056492887117576718e+00 -6.809802250570323734e-01 -7.323018046415518123e-01 0.000000000000000000e+00
9.638864528253037633e+00 -2.230929229494510224e+00 -3.388930560024736138e+00 2.254905081945627887e-01 9.742453647383486626e-01 -0.000000000000000000e+00
2.915270745754241943e+00 8.818448305130004883e+00 -3.391666769981384277e+00 -9.494624530875821478e-01 3.138806304583174889e-01 0.000000000000000000e+00
9.035303115844726562e+00 7.488887548446655273e+00 -3.083333492279052734e+00 -6.381438424366500106e-01 7.699171620117245540e-01 0.000000000000000000e+00
-1.026571914024078858e+01 -4.679926006705334984e+00 -2.569389231502811732e+00 4.148083387461318772e-01 -9.099088097752843218e-01 0.000000000000000000e+00
-9.721044707431525822e+00 5.105277767633859654e+00 -3.383986484149751561e+00 -4.649573584078312005e-01 -8.853330756627201259e-01 0.000000000000000000e+00
-7.998399326124285835e+00 5.128474148143939537e+00 1.997853129046736953e+00 -5.397627196241738812e-01 -8.418172049227289344e-01 0.000000000000000000e+00
-1.065453939131270289e+01 8.006473852111757328e-01 -3.335473110175723566e+00 -7.493484993204757583e-02 -9.971884316746065791e-01 0.000000000000000000e+00
-7.795626971944311201e+00 -7.821278850560678286e+00 -7.443734782302585673e-02 7.082672989038260036e-01 -7.059443556708123735e-01 0.000000000000000000e+00
5.393295553096139727e+00 -8.348793873247540631e+00 -2.307649404561170847e+00 8.399767295204599860e-01 5.426224229278698852e-01 -0.000000000000000000e+00
1.013733937278484731e+01 6.639745586715804393e+00 2.988074640476587884e+00 -5.479131161479668943e-01 8.365352456131330827e-01 0.000000000000000000e+00
-2.532345440303250261e-01 -1.160842942070877015e+01 3.268330574013318834e+00 9.997621440613141397e-01 -2.180952319342172041e-02 0.000000000000000000e+00
9.981832185688421788e+00 4.987718784168563957e+00 -1.093629894557722082e+00 -4.469843542644899026e-01 8.945417749008468533e-01 0.000000000000000000e+00
-8.663123969254272083e+00 -3.728597245298475027e+00 1.829397368572472704e+00 3.953367967492902313e-01 -9.185362361583840896e-01 0.000000000000000000e+00
1.114557670025395630e+00 -1.136836339578113808e+01 1.622687646699972674e+00 9.952284210750467208e-01 9.757248528386261444e-02 -0.000000000000000000e+00
4.693269024863762517e+00 -9.592294472718561948e+00 2.812645354422014243e+00 8.982474994737720264e-01 4.394899654020736346e-01 -0.000000000000000000e+00
-9.800134063658088479e+00 5.816679920588544661e+00 2.904813923767014749e+00 -5.103992844953949559e-01 -8.599375386541683319e-01 0.000000000000000000e+00
2.942906872701689380e-01 -1.054371573280009500e+01 2.887023626298580670e+00 9.996107021516758007e-01 2.790061188995167016e-02 -0.000000000000000000e+00
-4.792562870097002659e+00 8.943079146994049822e+00 3.124253676112230593e+00 -8.814131880939423125e-01 -4.723460509563646159e-01 0.000000000000000000e+00
9.009235401303524071e+00 5.613075846038924510e+00 2.679741362774256341e+00 -5.287995678827647206e-01 8.487467331348034216e-01 0.000000000000000000e+00
9.074572668466103664e+00 -4.620364938181658943e+00 -1.414302922665240381e-01 4.537284678819886730e-01 8.911399875628203127e-01 -0.000000000000000000e+00
8.805786256301274761e+00 7.690525641403214152e+00 -4.339552329305701450e-02 -6.578000739215605908e-01 7.531925801206418303e-01 0.000000000000000000e+00
-8.247346384447563850e+00 -9.837102428002658883e+00 1.213548706494793405e+00 7.663114519718264850e-01 -6.424692666399159924e-01 0.000000000000000000e+00
-1.044625579704155172e+01 5.477704957533288121e-01 -1.541960520363163667e+00 -5.236507413003603506e-02 -9.986280083251001249e-01 0.000000000000000000e+00
7.237568948204545549e+00 -6.903735131744113573e+00 7.366998930147694580e-01 6.902218085691071980e-01 7.235978544575645266e-01 -0.000000000000000000e+00
1.682503068175738692e+00 -1.011085557517406741e+01 7.169662945676708032e-01 9.864356516356458382e-01 1.641484242451297648e-01 -0.000000000000000000e+00
-8.300975257680358155e+00 7.157594116928625461e+00 -3.046221305461088491e+00 -6.530223637762387900e-01 -7.573386246640889663e-01 0.000000000000000000e+00
-1.524194833017940454e+00 1.140513170919092545e+01 3.097684052926895415e+00 -9.911878863406111684e-01 -1.324634816529888237e-01 0.000000000000000000e+00
-7.753169140045045538e+00 6.448869512646010271e+00 -1.267925850375024144e+00 -6.394757419025827172e-01 -7.688112743177885067e-01 0.000000000000000000e+00
-5.712741829860508602e+00 -1.087231441750733296e+01 -1.297904944048363651e+00 8.852377811686387155e-01 -4.651387650923382022e-01 0.000000000000000000e+00
-5.332302723122145593e+00 8.271554610586999701e+00 -4.645049269156101834e-01 -8.404902740288945351e-01 -5.418266321092329862e-01 0.000000000000000000e+00
2.390030486274847377e+00 1.185313336330269252e+01 -3.117165440650063957e+00 -9.802708611524687532e-01 1.976588950070238548e-01 0.000000000000000000e+00
-9.532972294657650281e+00 2.533508854087673789e+00 1.556721054328255693e+00 -2.568469569941427277e-01 -9.664520891812740100e-01 0.000000000000000000e+00
8.867376731418247005e+00 -4.986902178090399040e+00 2.887018389536144092e+00 4.901867753469992817e-01 8.716174190979150138e-01 -0.000000000000000000e+00
9.998484929684753553e+00 2.186112497175460412e+00 2.036028403586115143e+00 -2.135984033888459754e-01 9.769215536928930188e-01 0.000000000000000000e+00
8.306632281683258512e+00 -6.271141994270092113e+00 -2.405387670347628681e+00 6.025284404124703341e-01 7.980974116573215094e-01 -0.000000000000000000e+00
9.654218303359410669e+00 2.573049508592984314e+00 2.156723789675889513e+00 -2.575310144586777095e-01 9.662700329576016101e-01 0.000000000000000000e+00
-8.076042158045995123e-01 -1.177815310393320303e+01 -1.617892143564196861e+00 9.976574727077304194e-01 -6.840736181453314912e-02 0.000000000000000000e+00
-9.860952135039331878e+00 -4.598906140103343532e+00 -2.429396642063577527e+00 4.226687378136358975e-01 -9.062842479459896072e-01 0.000000000000000000e+00
-1.003793977376622060e+01 5.387592618171851200e+00 1.546900845054255624e+00 -4.729118258316392653e-01 -8.811097576287449940e-01 0.000000000000000000e+00
-1.049017498158957906e+01 6.268666185071231745e+00 2.081698000043015639e+00 -5.129643073192087233e-01 -8.584099366948897414e-01 0.000000000000000000e+00
-1.008075349344226801e+01 5.721128335451547642e+00 -2.767319928745088475e+00 -4.935806967010132329e-01 -8.697000033598610846e-01 0.000000000000000000e+00
9.755568537137950358e+00 -9.881349352942866426e-01 -1.199304937679867233e+00 1.007736971865396819e-01 9.949093737398173598e-01 -0.000000000000000000e+00
-1.053196941007301213e+01 4.730845640374395700e+00 -1.550992728097629225e+00 -4.097494317617969006e-01 -9.121981161846830499e-01 0.000000000000000000e+00
7.918008360477031715e+00 -5.231076681809478934e+00 -3.188286955364151964e+00 5.512231883922468212e-01 8.343578348518613241e-01 -0.000000000000000000e+00
-9.194436096302663231e+00 6.839845528186910828e-01 6.296251374105855669e-01 -7.418614535559754641e-02 -9.972444112840535002e-01 0.000000000000000000e+00
8.518007827627464223e+00 -5.113527959381277022e+00 -3.345725874779382991e+00 5.146972907936377961e-01 8.573719722790625886e-01 -0.000000000000000000e+00
-9.021672095024971583e+00 -2.807846901308813869e+00 3.963058095324525909e-02 2.971731286939049421e-01 -9.548236128114322430e-01 0.000000000000000000e+00
9.470791567151605861e+00 1.396038604826964846e+00 -2.067515094773491047e+00 -1.458288579331991908e-01 9.893098322537277056e-01 0.000000000000000000e+00
-7.598744822136675126e+00 5.923596238041870521e+00 -2.030964391702982930e+00 -6.148107769982181781e-01 -7.886746531281753070e-01 0.000000000000000000e+00
6.121773596556113972e+00 8.715050246622556784e+00 -1.015285558087612783e+00 -8.182939698374960269e-01 5.747999468750766283e-01 0.000000000000000000e+00
-7.379406221602984317e+00 9.681243599697218372e+00 -5.192821922992066908e-01 -7.953041618525248380e-01 -6.062105988351350616e-01 0.000000000000000000e+00
-1.109367288004130003e+01 2.522092400435810511e+00 2.103268500862215173e+00 -2.216882280162404961e-01 -9.751175978101407349e-01 0.000000000000000000e+00
-8.233909785514061497e+00 6.312623074404757340e+00 -3.513160895955669716e+00 -6.084290490941456353e-01 -7.936082737839832424e-01 0.000000000000000000e+00
4.936516737640953778e+00 9.703349576650188268e+00 -2.785556566971302050e+00 -8.912882450814516577e-01 4.534371667382664506e-01 0.000000000000000000e+00
2.917917406171659955e+00 1.216989341023139026e+01 2.836839994792407005e+00 -9.724390837208477523e-01 2.331570896459257969e-01 0.000000000000000000e+00
-1.072860388957625055e+01 -2.408965774476275357e+00 -8.302118347026551382e-01 2.190819509755909111e-01 -9.757064613687504995e-01 0.000000000000000000e+00
8.885381071166975175e+00 -4.745438486161211777e+00 1.353989152347625513e+00 4.710958363873468113e-01 8.820820329983524166e-01 -0.000000000000000000e+00
-7.044959973989993962e+00 -1.013918006080560019e+01 2.202568348106646479e+00 8.212233616115116597e-01 -5.706068614584727250e-01 0.000000000000000000e+00
-9.478671604180521015e+00 6.039354849305206940e+00 1.809477494101019435e-01 -5.373486596266385806e-01 -8.433601946958695361e-01 0.000000000000000000e+00
-6.336554005502682330e+00 -1.088774116975094586e+01 -1.208988029653233820e+00 8.642838669742094471e-01 -5.030043710427449799e-01 0.000000000000000000e+00
-3.333452757762036534e+00 1.104405602679878839e+01 1.591778071837901098e+00 -9.573421447792083150e-01 -2.889567750192848505e-01 0.000000000000000000e+00
8.484070278400347220e+00 -7.228709514095893240e+00 -1.616684605230186644e+00 6.485464418756742289e-01 7.611750867772821838e-01 -0.000000000000000000e+00
7.873579255729607596e+00 -6.258425229941051882e+00 3.127111916954350423e+00 6.222404183652702203e-01 7.828262014985277739e-01 -0.000000000000000000e+00
-4.543716943133203623e-01 -9.900944364934552766e+00 -2.028436795234624945e+00 9.989486338818507338e-01 -4.584350407183341441e-02 0.000000000000000000e+00
8.906659183611235875e+00 -5.240492954230700384e+00 -2.574929376273960013e+00 5.071122653938150426e-01 8.618800092165690430e-01 -0.000000000000000000e+00
-7.975866287511792940e+00 5.983987895785013222e+00 3.295786895935696847e+00 -6.001340226475682105e-01 -7.998994654710354091e-01 0.000000000000000000e+00
7.015816200005680514e+00 -8.340242619601227148e+00 3.514746559482111898e+00 7.652522299319144405e-01 6.437305527813889094e-01 -0.000000000000000000e+00
8.247149503333497833e+00 9.576266063334273326e+00 5.088527826274780175e-01 -7.577327909663154060e-01 6.525649527015671136e-01 0.000000000000000000e+00
2.648929037325693514e+00 -1.006135091200396481e+01 1.682275008715472531e+00 9.670460239693459137e-01 2.546016251422589804e-01 -0.000000000000000000e+00
1.015306890130861994e+01 -4.499403531923167776e+00 1.793207288894740570e+00 4.051553375248088118e-01 9.142478616191336283e-01 -0.000000000000000000e+00
-6.073776636314894617e+00 7.693732521391747348e+00 -7.728381748156193387e-01 -7.848938159997017605e-01 -6.196302910651046991e-01 0.000000000000000000e+00
-1.067118725144056590e+01 4.470765749688824897e+00 3.256213785416044448e+00 -3.864143862104567062e-01 -9.223252800013648223e-01 0.000000000000000000e+00
-9.515941618669273794e+00 4.975099591094968687e+00 -3.160603734201412163e+00 -4.633169184776345650e-01 -8.861926613622961302e-01 0.000000000000000000e+00
-4.367171966448768039e+00 -1.055395765558331256e+01 2.337344121763354821e+00 9.240163042739457655e-01 -3.823530690813388144e-01 0.000000000000000000e+00
-8.838677533971964095e+00 1.147650672439937791e+00 2.103268500862215173e+00 -1.287632558008901251e-01 -9.916753621803633401e-01 0.000000000000000000e+00
-8.635387463173662681e+00 5.203075979111428495e+00 1.431479681928431225e+00 -5.160879817278992698e-01 -8.565355772622780250e-01 0.000000000000000000e+00
9.908824483378239734e+00 -4.739727612728779960e+00 1.325831726410770850e+00 4.315091844711614888e-01 9.021085432014449568e-01 -0.000000000000000000e+00
-9.673438714616013456e+00 -4.377721568502081162e+00 -2.439565762702438079e+00 4.122962505952619261e-01 -9.110498349404873020e-01 0.000000000000000000e+00
-2.454438807165283176e+00 1.070045583524744970e+01 2.876382104920143234e+00 -9.746876550611347501e-01 -2.235709620488009752e-01 0.000000000000000000e+00
3.227623760700225830e+00 8.834057092666625977e+00 -3.083333492279052734e+00 -9.392719425326354621e-01 3.431737431257957938e-01 0.000000000000000000e+00
1.049582600027158197e+00 -1.034568273419455053e+01 -3.154943575363371888e+00 9.948932074901506439e-01 1.009331743777050899e-01 -0.000000000000000000e+00
-9.910481819021402572e+00 1.211524425391559801e+00 3.336601820287798059e+00 -1.213434410221354981e-01 -9.926105829180483786e-01 0.000000000000000000e+00
-5.545636858403319103e+00 -1.175138226469999836e+01 2.720165674273870238e+00 9.043563931917864007e-01 -4.267780618695658501e-01 0.000000000000000000e+00
-1.005006718515181774e+01 4.958220390159604918e+00 -2.852270456499081064e+00 -4.424376744359319047e-01 -8.967992552626949943e-01 0.000000000000000000e+00
2.792941021848130312e+00 -1.143231578182590802e+01 1.452013015856455702e+00 9.714308486841939372e-01 2.373227890968473142e-01 -0.000000000000000000e+00
2.133952201712347563e+00 -1.108839289534028438e+01 8.526866466792554222e-01 9.819806705051170592e-01 1.889813820309308445e-01 -0.000000000000000000e+00
1.017199360052432766e+01 3.018369518778226013e+00 3.390057109101472399e+00 -2.844734685996808121e-01 9.586839133222516685e-01 0.000000000000000000e+00
-9.928325724642995453e+00 -3.353574095163422530e+00 3.457541212851810819e+00 3.200154321765787402e-01 -9.474123300700902917e-01 0.000000000000000000e+00
9.791887114452997309e+00 -2.421089349124511791e+00 -3.527471685800952272e+00 2.400264657701222104e-01 9.707663445597526364e-01 -0.000000000000000000e+00
6.118099348020598072e-01 -1.052863981078776590e+01 3.195356904000912213e+00 9.983159291288159487e-01 5.801125449142507939e-02 -0.000000000000000000e+00
-2.362819855837036798e+00 -1.166075139001294048e+01 -2.436554494857255726e+00 9.800818187209713317e-01 -1.985941303578565020e-01 0.000000000000000000e+00
4.146560857356778484e+00 1.159878848144516716e+01 -1.671295871940363220e+00 -9.416354995724454113e-01 3.366342019833268862e-01 0.000000000000000000e+00
9.995946671305945275e-01 -9.531655254915277098e+00 -1.665776501409681476e+00 9.945459779762122476e-01 1.042990780943891804e-01 -0.000000000000000000e+00
-2.816401029460862127e+00 1.036866707520663766e+01 3.201700495720823270e+00 -9.650330583078331470e-01 -2.621282059852210744e-01 0.000000000000000000e+00
-3.547104731580322579e+00 1.101524931088787795e+01 1.135766963712901534e+00 -9.518650695387834704e-01 -3.065173557760265677e-01 0.000000000000000000e+00
1.011574556770308142e+01 -4.869647079708191439e-01 -3.283921667995132854e+00 4.808359797757562337e-02 9.988433148424886721e-01 -0.000000000000000000e+00
-9.539703347317802340e+00 2.014833374251322251e+00 1.196348576723782475e+00 -2.066463232660858684e-01 -9.784157077033300842e-01 0.000000000000000000e+00
5.356686298966245374e+00 9.643706460515160117e+00 6.458001163067802475e-01 -8.741930015120190633e-01 4.855786199035199147e-01 0.000000000000000000e+00
-8.263371771863937454e+00 5.881563526727697777e+00 1.192436902992893843e-02 -5.798765425732881340e-01 -8.147043607181992941e-01 0.000000000000000000e+00
-7.843173398051507483e+00 6.379268589616863494e+00 3.592547745306004181e+00 -6.309911469384285043e-01 -7.757900311845509211e-01 0.000000000000000000e+00
2.041916757822036743e+00 9.340975522994995117e+00 -3.391666769981384277e+00 -9.769310461789868505e-01 2.135549835794764151e-01 0.000000000000000000e+00
1.169556085969740877e+01 5.823652944421552763e-02 3.447110869190429305e+00 -4.979308661997879255e-03 9.999876031657836117e-01 0.000000000000000000e+00
1.716971278190612793e+00 9.127894163131713867e+00 -3.391666769981384277e+00 -9.827649342918345354e-01 1.848596330364370988e-01 0.000000000000000000e+00
1.027827621941444924e+01 2.397415066228716363e+00 1.581992692821467150e+00 -2.271532916907347543e-01 9.738590155017634586e-01 0.000000000000000000e+00
-8.830101856100259994e+00 1.351629166249637803e+00 1.794935014543626917e+00 -1.513082607902428989e-01 -9.884866262204218268e-01 0.000000000000000000e+00
9.495462334027298112e+00 -8.962889697955725987e-01 -4.561280628707016227e-01 9.397358263812062573e-02 9.955746912041087970e-01 -0.000000000000000000e+00
-8.735910258447669108e+00 -1.794138348896708202e+00 -4.611745036918878937e-01 2.011762096526506505e-01 -9.795550687275285107e-01 0.000000000000000000e+00
2.766982734203338623e+00 9.157824516296386719e+00 -3.391666769981384277e+00 -9.572595344975600717e-01 2.892303296916057254e-01 0.000000000000000000e+00
1.001206337641167821e+01 -1.853062087058572338e+00 2.764057951342523411e-01 1.819920514604174699e-01 9.833000016298327761e-01 -0.000000000000000000e+00
-1.111834109674662230e+01 2.229755668286686365e+00 1.794935014543626917e+00 -1.966322860296991493e-01 -9.804773042201102573e-01 0.000000000000000000e+00
8.895519492356445568e+00 5.490035982542411652e+00 -2.714300484864908825e+00 -5.251981707880784001e-01 8.509799535834298156e-01 0.000000000000000000e+00
9.860386200802722101e+00 4.766995340513645374e+00 -2.569102422102074179e+00 -4.352531843489992336e-01 9.003080947731482153e-01 0.000000000000000000e+00
8.107908318102518663e+00 -7.337638938418351131e+00 3.077358819718818417e+00 6.710094811726977637e-01 7.414487684097581521e-01 -0.000000000000000000e+00
-7.326460305477774604e+00 9.437015193712378291e+00 4.910248136278805298e-02 -7.898970928780905121e-01 -6.132394170817313528e-01 0.000000000000000000e+00
8.646925680918727153e+00 5.071397502809289470e+00 -4.636259660039072639e-01 -5.059058421702001818e-01 8.625887078197004287e-01 0.000000000000000000e+00
-1.069323604017572649e+01 1.713388573245313795e+00 -1.915646569313387726e+00 -1.582129545466761378e-01 -9.874050136664342947e-01 0.000000000000000000e+00
-4.734329413732455194e+00 -1.004822842871929112e+01 1.725368850398002474e+00 9.046191186005034801e-01 -4.262208937422570787e-01 0.000000000000000000e+00
-8.118425002384514144e+00 -5.402368801549518373e+00 -1.929215959471371367e+00 5.539961253473493219e-01 -8.325192448827378744e-01 0.000000000000000000e+00
6.592417067188161894e+00 -7.876896108313816924e+00 2.539993629139585263e+00 7.668627804151406657e-01 6.418110905975058511e-01 -0.000000000000000000e+00
-8.886140442750178892e+00 -4.405409328948721281e+00 -1.356654452508573305e+00 4.441733029996038917e-01 -8.959408891787571383e-01 0.000000000000000000e+00
-1.136324301199945541e+00 -1.136292637672959671e+01 -3.415936857819501959e+00 9.950369156780316526e-01 -9.950646430232479300e-02 0.000000000000000000e+00
-3.447873167463856969e+00 1.056042960818788146e+01 1.407209860737260509e+00 -9.506168872241276269e-01 -3.103667729063634972e-01 0.000000000000000000e+00
5.931320786476135254e+00 7.072313666343688965e+00 -3.391666769981384277e+00 -7.662073923225453109e-01 6.425933643839510934e-01 0.000000000000000000e+00
3.646329820156097412e+00 8.851202249526977539e+00 -3.391666769981384277e+00 -9.246149330635018426e-01 3.809031708400129057e-01 0.000000000000000000e+00
-9.073275533985043495e+00 1.858137378224352099e-01 -3.044873172037173337e+00 -2.047494141739431006e-02 -9.997903664138569901e-01 0.000000000000000000e+00
1.042809135733132919e+01 -2.179909328860555107e+00 -3.557238429856081297e+00 2.046190475974964673e-01 9.788416855448555109e-01 -0.000000000000000000e+00
1.074962053995482947e+01 3.692765255869704166e+00 1.638410953178597751e+00 -3.248896015117180291e-01 9.457519478328116902e-01 0.000000000000000000e+00
-9.767448063540049574e+00 -8.060593234015688280e-01 -3.106474019327715830e+00 8.224548223043549877e-02 -9.966121013978723742e-01 0.000000000000000000e+00
-8.039500343667928206e+00 -6.654505229267443589e+00 -1.138926122747308423e+00 6.376317262349595616e-01 -7.703413410291738428e-01 0.000000000000000000e+00
1.581569646884234182e+00 -1.212033252141106487e+01 6.252698084439842763e-01 9.915935191457927456e-01 1.293920120720851441e-01 -0.000000000000000000e+00
3.974801480770111084e+00 8.536615133285522461e+00 -3.083333492279052734e+00 -9.065471174408482602e-01 4.221046361504322553e-01 0.000000000000000000e+00
6.725582407184071521e+00 9.100876307591242664e+00 2.998398070000062976e+00 -8.042248093244598328e-01 5.943252106944784119e-01 0.000000000000000000e+00
1.960085744066629276e+00 -1.115961213305639177e+01 -2.270799222566397990e+00 9.849230713033080287e-01 1.729929004741493914e-01 -0.000000000000000000e+00
-1.007928281015527361e+01 5.938029668830895780e+00 3.582587070544276386e+00 -5.075941045649596806e-01 -8.615963236985733076e-01 0.000000000000000000e+00
-7.234266672444618962e+00 8.130604086461413971e+00 -1.386235774231803219e+00 -7.470869721594789459e-01 -6.647263015930555685e-01 0.000000000000000000e+00
7.857625424243753542e+00 -7.436574458720068392e+00 3.179059964554052931e-01 6.873796200385452471e-01 7.262983257282542571e-01 -0.000000000000000000e+00
6.161045551300048828e+00 7.020346879959106445e+00 -3.083333492279052734e+00 -7.516080149685439027e-01 6.596100301201044402e-01 0.000000000000000000e+00
8.747395674006206434e+00 -3.763721328574300973e+00 -3.240772411694283761e+00 3.952352285516533836e-01 9.185799443226062566e-01 -0.000000000000000000e+00
9.586299049056432153e+00 2.823358499071499939e+00 1.848390303357301256e+00 -2.825216935222533143e-01 9.592609096014067527e-01 0.000000000000000000e+00
-3.140828959987677305e+00 1.017531772485728681e+01 1.220894840136319770e+00 -9.555156806687514770e-01 -2.949403058181992998e-01 0.000000000000000000e+00
1.816276855589213701e+00 -1.165838835143473595e+01 1.682896733437761139e+00 9.880810468031978600e-01 1.539345476113047340e-01 -0.000000000000000000e+00
1.172278017938806727e+01 -9.915844236021111036e-02 -4.752799118315055305e-01 8.458308842595190988e-03 9.999642278659389705e-01 -0.000000000000000000e+00
7.760835507231321984e+00 4.717354450267697175e+00 -3.345771299416564037e+00 -5.194139991057169503e-01 8.545227308462931548e-01 0.000000000000000000e+00
1.154870956556282735e+01 2.363680800340258514e+00 4.709642713539586856e-01 -2.005138729686999077e-01 9.796908628476087566e-01 0.000000000000000000e+00
5.954917073249816895e+00 7.410046696662902832e+00 -3.391666769981384277e+00 -7.794876049413901331e-01 6.264176512062344937e-01 0.000000000000000000e+00
9.631115213254369811e-01 -1.102663894383881171e+01 2.873009831447183249e+00 9.962071944399146783e-01 8.701279070432189899e-02 -0.000000000000000000e+00
-1.085063720516382091e+01 4.407202028191870014e-01 -1.985236754227787781e+00 -4.058352582136873915e-02 -9.991761493510072922e-01 0.000000000000000000e+00
-5.877945244179724860e+00 -8.807393083454822857e+00 1.692330523781055973e+00 8.317734141575473528e-01 -5.551152920796699197e-01 0.000000000000000000e+00
-4.750442809552589019e+00 -1.161959588253371400e+01 2.803048216997953368e+00 9.256314713683393425e-01 -3.784261872710229513e-01 0.000000000000000000e+00
1.077326793014069395e+01 -3.272924420404046408e+00 -1.312419739697281984e-01 2.906823021968888976e-01 9.568196273015706632e-01 -0.000000000000000000e+00
9.123268471467962826e+00 4.383091646412219156e+00 -3.130697415784217785e+00 -4.330460343545561863e-01 9.013718057104918024e-01 0.000000000000000000e+00
-8.926641733633243092e+00 3.043918532481685979e+00 -2.997638178591099045e+00 -3.227447145888031055e-01 -9.464860533600019110e-01 0.000000000000000000e+00
-1.006587572233709427e+00 -9.925953520207990266e+00 -2.182603538393919074e+00 9.948973631959654451e-01 -1.008922033940937990e-01 0.000000000000000000e+00
8.589551091194152832e+00 2.875445604324340820e+00 -3.237500131130218506e+00 -3.174458354595619536e-01 9.482764056694550359e-01 0.000000000000000000e+00
-1.311853051023515793e+00 -1.088029993858872757e+01 -3.415936857819501959e+00 9.928095717918720142e-01 -1.197044450237327862e-01 0.000000000000000000e+00
8.958542448833334504e+00 5.690362281819940193e+00 1.273440517528804605e+00 -5.361692151729285927e-01 8.441105216148213630e-01 0.000000000000000000e+00
1.958818219323724463e+00 -9.645050078128708293e+00 -4.996402075945997057e-01 9.799939110330733172e-01 1.990274713151448660e-01 -0.000000000000000000e+00
-9.619408067029585396e+00 2.225376823221255407e+00 -3.259456833796185116e+00 -2.253896474189017174e-01 -9.742687036112692711e-01 0.000000000000000000e+00
-7.270048342957334597e+00 -8.049764879187875977e+00 -3.106010986096092275e+00 7.421350656143573810e-01 -6.702503594818682853e-01 0.000000000000000000e+00
5.152813178218170975e+00 1.160750626777454286e+01 4.732048735984466514e-01 -9.139890964091930137e-01 4.057387480203327734e-01 0.000000000000000000e+00
-1.012401059107812973e+00 -1.061559165802537308e+01 -3.415936857819501959e+00 9.954831410529950686e-01 -9.493848471122265376e-02 0.000000000000000000e+00
6.291161006586746041e+00 1.006611313153849530e+01 -2.825618463520128909e+00 -8.480043505726440056e-01 5.299892653722985125e-01 0.000000000000000000e+00
-1.934772057548220570e+00 1.147019597583869555e+01 1.360697458159172868e+00 -9.860703843881758468e-01 -1.663285815263131628e-01 0.000000000000000000e+00
8.927999842524627638e+00 -2.831921257858859953e+00 -1.766476982133967200e+00 3.023497995684658046e-01 9.531970408582418619e-01 -0.000000000000000000e+00
-8.478144057106866693e-01 -1.221702541828798871e+01 3.325264178033547902e-01 9.976007501846366754e-01 -6.922964127489265873e-02 0.000000000000000000e+00
-6.433561733375335656e+00 -1.099692850915306863e+01 1.237809331789386569e+00 8.631398472323035254e-01 -5.049649533579492200e-01 0.000000000000000000e+00
1.037804245427715522e+01 5.459647769075136381e+00 -1.704381059871893367e+00 -4.655808247567573832e-01 8.850053647401341372e-01 0.000000000000000000e+00
7.508506436578308296e+00 -8.252700323822946160e+00 -2.159298400074452506e-02 7.396700457678941909e-01 6.729697046626404999e-01 -0.000000000000000000e+00
-2.928467901763500247e+00 9.463392240975030845e+00 -7.907807495921492791e-01 -9.553052015415642861e-01 -2.956213319563242292e-01 0.000000000000000000e+00
3.020295542128722532e-01 1.165566646858755639e+01 1.275018867556903190e+00 -9.996644354911323749e-01 2.590398452354112507e-02 0.000000000000000000e+00
7.010211973841041777e-01 -1.201061858325251741e+01 3.195356904000912213e+00 9.983009989175465337e-01 5.826762016960239376e-02 -0.000000000000000000e+00
-1.041437689088662211e+01 1.486673702095956173e+00 -2.809940537941294725e+00 -1.413194028923528689e-01 -9.899640530676601102e-01 0.000000000000000000e+00
7.563618987369379099e+00 5.931283290066746261e+00 -2.906443216466902069e+00 -6.170776518097118579e-01 7.869022630778312877e-01 0.000000000000000000e+00
-3.583245964858104315e+00 1.018206262404971696e+01 1.506522698124695747e+00 -9.432930026166084225e-01 -3.319613098156822817e-01 0.000000000000000000e+00
-2.914659590741520478e+00 -1.138419201497382360e+01 8.712188015247891715e-02 9.687531498684265330e-01 -2.480268828574883622e-01 0.000000000000000000e+00
9.061012897105754860e+00 -5.624511921601349052e+00 -3.188286955364151964e+00 5.273923029209064417e-01 8.496218916787533493e-01 -0.000000000000000000e+00
-9.429846104395650741e+00 6.555012565597843732e+00 -2.415743674222738946e+00 -5.707780797650685578e-01 -8.211043683111796110e-01 0.000000000000000000e+00
1.050332151162342953e+01 2.503335730077039578e+00 -2.554657170119907228e+00 -2.318435692122254588e-01 9.727530824494653450e-01 0.000000000000000000e+00
8.045219013308468448e+00 5.125854933077730990e+00 -3.335948195562150165e+00 -5.373357838943866316e-01 8.433683983566168108e-01 0.000000000000000000e+00
1.130511585461140456e+01 -2.286325731556284158e+00 -4.561280628707016227e-01 1.982250455169905778e-01 9.801565340953387606e-01 -0.000000000000000000e+00
9.908635895808222571e+00 2.785344793004974395e+00 1.394354592592653264e+00 -2.706142092106159636e-01 9.626878776495075840e-01 0.000000000000000000e+00
1.154462848821964016e+01 3.710282706282040710e+00 2.156723789675889513e+00 -3.059725006708520212e-01 9.520403504228303060e-01 0.000000000000000000e+00
-8.791818195367044453e+00 5.670450616326386140e+00 1.809477494101019435e-01 -5.420127915991825862e-01 -8.403702361119538278e-01 0.000000000000000000e+00
5.562839269638061523e+00 7.550566434860229492e+00 -3.083333492279052734e+00 -8.050933131810779075e-01 5.931481746335522942e-01 0.000000000000000000e+00
5.282925248146057129e+00 7.607463002204895020e+00 -3.391666769981384277e+00 -8.213717447189253784e-01 5.703932476611101032e-01 0.000000000000000000e+00
1.095007693785475134e+01 1.630725688809619989e+00 -2.918530408256116093e+00 -1.472992114482369330e-01 9.890919786889020848e-01 0.000000000000000000e+00
-9.130309291667401794e+00 4.941733780531041731e+00 -2.793074108214290696e+00 -4.759963764562039623e-01 -8.794472409420384107e-01 0.000000000000000000e+00
1.030616556441793819e+01 -4.367709913139926847e+00 -1.766476982133967200e+00 3.902013394342392916e-01 9.207295556805622505e-01 -0.000000000000000000e+00
6.979886820279115334e+00 -7.339157964620803831e+00 1.344403477310488704e+00 7.246203526445275100e-01 6.891482747082232629e-01 -0.000000000000000000e+00
8.954825878143310547e+00 7.052988767623901367e+00 -3.391666769981384277e+00 -6.187461765145556569e-01 7.855909680289216990e-01 0.000000000000000000e+00
1.002536504352957536e+01 3.798749416629070286e+00 2.709113427964165322e+00 -3.543300573995490366e-01 9.351204256261503867e-01 0.000000000000000000e+00
9.320680057873733659e+00 -1.842721202652322976e+00 -7.644613107707107780e-01 1.939484138665661106e-01 9.810117291646637261e-01 -0.000000000000000000e+00
1.131832472073078932e+01 -1.928689488451349465e+00 -7.644613107707107780e-01 1.679826961864653578e-01 9.857899440458528506e-01 -0.000000000000000000e+00
8.528638005256652832e+00 3.654187977313995361e+00 -3.391666769981384277e+00 -3.938334715110490269e-01 9.191818083042960774e-01 0.000000000000000000e+00
-6.451212088816049572e+00 7.719842990458347209e+00 -2.853912481470707529e+00 -7.673401636282636273e-01 -6.412402617451198328e-01 0.000000000000000000e+00
-2.671438030871480684e+00 9.947624703628818565e+00 3.490615672044292128e-02 -9.657805294081902581e-01 -2.593606928893346097e-01 0.000000000000000000e+00
1.568805676069451094e+00 1.003712594435728889e+01 -1.269863740701282051e+00 -9.880044543269279611e-01 1.544253807835661574e-01 0.000000000000000000e+00
5.357042602732711600e+00 9.364009591111235764e+00 -1.898603091550969735e+00 -8.679962673796325356e-01 4.965707198526970179e-01 0.000000000000000000e+00
9.455087900161743164e+00 6.762229323387145996e+00 -3.391666769981384277e+00 -5.817276932266690626e-01 8.133836062604029582e-01 0.000000000000000000e+00
-5.290004413646428816e+00 8.727428411911692052e+00 -5.934882122456480724e-01 -8.551694314351113713e-01 -5.183485733933763662e-01 0.000000000000000000e+00
8.393212869500850104e+00 9.177772292409844823e+00 8.575769289018433383e-01 -7.379444469628538839e-01 6.748614622251650763e-01 0.000000000000000000e+00
1.346203282881917485e+00 -1.011656335236306070e+01 1.826391038098625241e+00 9.912621638425928028e-01 1.319064916298703927e-01 -0.000000000000000000e+00
-5.989461220410404074e+00 -9.735272205407841994e+00 -1.014505917551264069e+00 8.517159310722910437e-01 -5.240037907855825683e-01 0.000000000000000000e+00
7.360303924746937732e+00 1.068643209944610106e+01 2.073398028276811633e+00 -8.235601776372410976e-01 5.672289077701488935e-01 0.000000000000000000e+00
6.826698037355167337e+00 -7.889490251320816050e+00 1.475861980409393981e+00 7.562040366764507526e-01 6.543358884504513195e-01 -0.000000000000000000e+00
-3.685861106418129030e+00 9.314075417021417280e+00 4.320982846993776105e-01 -9.298394207020587166e-01 -3.679655577747187878e-01 0.000000000000000000e+00
-6.777888176706125201e+00 9.975010711998686830e+00 -1.236417343430346039e+00 -8.271238270358799438e-01 -5.620197280785788063e-01 0.000000000000000000e+00
1.170362300813867762e+01 6.947510402976982968e-01 -4.752799118315055305e-01 -5.925773286555894442e-02 9.982427165252116819e-01 0.000000000000000000e+00
8.591263691202861708e+00 -4.719972592192769767e+00 -3.549105689396615304e+00 4.815096616814878994e-01 8.764407827727890288e-01 -0.000000000000000000e+00
-6.808817207680701422e+00 -1.119746757495567735e+01 1.692330523781055973e+00 8.544368049106644269e-01 -5.195553352762871668e-01 0.000000000000000000e+00
-1.007792379998122811e+01 -6.605427030137948741e+00 1.805195369775296488e+00 5.481800834059413763e-01 -8.363603267474225555e-01 0.000000000000000000e+00
1.068934523294854344e+01 -1.959910088538674877e+00 2.764057951342523411e-01 1.803453885623338693e-01 9.836033452689662004e-01 -0.000000000000000000e+00
-7.425694907936403411e+00 -1.045191311405075929e+01 7.509213888061255782e-02 8.152048753283478444e-01 -5.791726955243080566e-01 0.000000000000000000e+00
-9.609153026331725300e+00 -6.243504095477447891e+00 6.838440412776549682e-01 5.448383278532874519e-01 -8.385411119927477230e-01 0.000000000000000000e+00
6.157094687399367494e+00 1.074087725557146378e+01 -1.807943844770133257e+00 -8.675655677564605428e-01 4.973228183417795489e-01 0.000000000000000000e+00
-1.379085045650443542e+00 1.012802208100543311e+01 3.553711286639224198e+00 -9.908564601712124276e-01 -1.349202554732779613e-01 0.000000000000000000e+00
6.387490406332963389e+00 -7.849736009777720902e+00 1.217281591326337953e+00 7.756505076902200368e-01 6.311626493384286940e-01 -0.000000000000000000e+00
6.522635936737060547e+00 6.456618785858154297e+00 -3.391666769981384277e+00 -7.035010820509058904e-01 7.106941870827457874e-01 0.000000000000000000e+00
4.143493063302016166e-01 -9.862858055569830640e+00 -2.176173233681450103e+00 9.991187010340366603e-01 4.197405441531187886e-02 -0.000000000000000000e+00
-7.612446587129583442e+00 -1.082307395379364579e+01 1.966837981012683478e+00 8.179412232250832249e-01 -5.753017950163678007e-01 0.000000000000000000e+00
8.275066971778869629e+00 -3.714609742164611816e+00 -3.391666769981384277e+00 4.095237490755533893e-01 9.122994568359137357e-01 -0.000000000000000000e+00
1.155952702680911770e+01 3.393795036337277526e+00 1.848390303357301256e+00 -2.817028806280260644e-01 9.595016868384715902e-01 0.000000000000000000e+00
-6.073182854564345590e+00 8.355041079108669777e+00 -1.393587903956265972e+00 -8.088839159691518788e-01 -5.879683754135166529e-01 0.000000000000000000e+00
-5.087975657751271363e+00 8.396714332822387661e+00 2.145226784317699753e+00 -8.552403624701356843e-01 -5.182315335850867788e-01 0.000000000000000000e+00
-9.370813142028930898e+00 5.983837153640731543e+00 -1.592690004900934042e+00 -5.381931006317215438e-01 -8.428215626290144202e-01 0.000000000000000000e+00
-6.449493234155601940e+00 8.601101029540807019e+00 1.728831011180902155e-01 -8.000594922456472080e-01 -5.999206688118332575e-01 0.000000000000000000e+00
9.039304216807690917e-01 1.130794457897734162e+01 -1.224050835332817888e+00 -9.968202178032488092e-01 7.968345737155139996e-02 0.000000000000000000e+00
1.041315466357206532e+01 3.852005580981638033e+00 1.065121929311666354e-01 -3.469406196419029254e-01 9.378870968525435670e-01 0.000000000000000000e+00
-2.103117504774439261e+00 -1.087439468059018033e+01 2.175811081577529116e+00 9.818068588193339385e-01 -1.898823108541507210e-01 0.000000000000000000e+00
8.020427803646869691e+00 8.654689995457298224e+00 -1.519370009681257683e+00 -7.334722175507990549e-01 6.797194318842982863e-01 0.000000000000000000e+00
-3.684152864378099634e-01 1.173493698073513514e+01 6.908891591280291733e-02 -9.995075491749301211e-01 -3.137927886877900363e-02 0.000000000000000000e+00
-1.044153993765201349e+01 -2.718840301496244116e+00 -2.969074976358470064e+00 2.519845501038415758e-01 -9.677312573793225292e-01 0.000000000000000000e+00
-9.817928441869913314e+00 1.963813452367191514e+00 3.336601820287798059e+00 -1.961380083365028004e-01 -9.805763007975412116e-01 0.000000000000000000e+00
-1.013093842455245053e+01 -6.882652658950173752e+00 -3.246293698236019654e-01 5.619534595978977753e-01 -8.271688517140582952e-01 0.000000000000000000e+00
-9.894489339539251915e+00 6.084139399841364870e+00 3.582587070544276386e+00 -5.237990873526471303e-01 -8.518418374842444685e-01 0.000000000000000000e+00
6.860834002494812012e+00 -5.632855772972106934e+00 -3.391666769981384277e+00 6.345490917429512656e-01 7.728825591046777355e-01 -0.000000000000000000e+00
9.038907885551452637e+00 -4.659907579421997070e+00 3.545833408832550049e+00 4.582285952251580197e-01 8.888343796894775384e-01 -0.000000000000000000e+00
7.648438185024103220e+00 5.800013000645664718e+00 -2.135609813594816497e+00 -6.042376621314718976e-01 7.968041463633915855e-01 0.000000000000000000e+00
6.244149804758065692e-01 9.844086238676489131e+00 -2.530447612347570541e+00 -9.979943381679993175e-01 6.330324624075207851e-02 0.000000000000000000e+00
-8.482109634217383842e+00 -8.577161716826967819e+00 1.251688500897875755e+00 7.110356526837782187e-01 -7.031559575318648836e-01 0.000000000000000000e+00
7.754601772366812584e-01 -9.510358753755609129e+00 -1.974109987728269733e+00 9.966922230754904355e-01 8.126876682242169248e-02 -0.000000000000000000e+00
6.773557782173156738e+00 6.342764973640441895e+00 -3.083333492279052734e+00 -6.835139855758012306e-01 7.299374161681833062e-01 0.000000000000000000e+00
1.094451325024039079e+01 4.042302101413006277e+00 2.709113427964165322e+00 -3.464684450169760455e-01 9.380616272972254199e-01 0.000000000000000000e+00
-8.733676991617224772e+00 -2.032516575653757762e+00 -7.695077515918971045e-01 2.266646661062032275e-01 -9.739728585227430679e-01 0.000000000000000000e+00
9.574309657623061298e+00 8.867851331536485970e-01 -1.539922822075080244e+00 -9.222656559273947896e-02 9.957380481828381757e-01 0.000000000000000000e+00
9.487300765662432411e+00 -2.855407084268073881e+00 1.135163403158421680e+00 2.882012332012271472e-01 9.575698664751789435e-01 -0.000000000000000000e+00
-1.035974269838957795e+01 6.084322284219460641e+00 3.582587070544276386e+00 -5.064236464350962974e-01 -8.622848081297621592e-01 0.000000000000000000e+00
-1.061512337538352924e+01 6.152989390707272577e+00 2.965920515139613300e+00 -5.014874088462396573e-01 -8.651649430996869450e-01 0.000000000000000000e+00
-9.759689960340375947e+00 -6.737965618391269729e+00 8.070351820787931008e-01 5.681411595278097471e-01 -8.229311167105033409e-01 0.000000000000000000e+00
-5.612036860754201051e+00 8.779668691876953091e+00 3.378560103743282639e+00 -8.425741457234178222e-01 -5.385803644382636257e-01 0.000000000000000000e+00
-5.221578396131703492e+00 8.295243266347473110e+00 2.761893548338619553e+00 -8.462950515545550889e-01 -5.327144504462717478e-01 0.000000000000000000e+00
9.472899820061307707e+00 -7.226380675921584285e-01 -2.439248439708183280e+00 7.606377833897989826e-02 9.971029543757248259e-01 -0.000000000000000000e+00
-9.428898342934706633e+00 5.907592206996304940e-01 -1.440919316547441653e+00 -6.253149395148026313e-02 -9.980429911903576645e-01 0.000000000000000000e+00
9.570821017126540653e+00 -5.486262192784076674e+00 1.570489378920906010e+00 4.973153073355121023e-01 8.675698733184465938e-01 -0.000000000000000000e+00
8.339455696946330931e+00 4.180783105287201984e+00 -3.036809665042379258e+00 -4.481614038663515043e-01 8.939526587490755904e-01 0.000000000000000000e+00
1.747851550985517033e+00 -1.043090132118935465e+01 3.368057843842796384e+00 9.862499119683487692e-01 1.652607368446137592e-01 -0.000000000000000000e+00
-5.340319680326457430e-01 1.006681089386657746e+01 3.245378008936892655e+00 -9.985958767202277597e-01 -5.297428619018781926e-02 0.000000000000000000e+00
-1.008175302506545634e+01 -1.319638514095419879e+00 4.535111749210652965e-01 1.297866485932643865e-01 -9.915419435641280588e-01 0.000000000000000000e+00
-2.048978383051997199e+00 1.075693507430914053e+01 3.221605971916703837e+00 -9.823379223737910282e-01 -1.871154891139267251e-01 0.000000000000000000e+00
5.739499729617170587e+00 9.062145309849761077e+00 2.093256490553565108e+00 -8.448131324256923369e-01 5.350614649562138725e-01 0.000000000000000000e+00
-5.686048336940231707e+00 1.067009316089155568e+01 -2.414915613312947684e+00 -8.825132029600795125e-01 -4.702876211438504206e-01 0.000000000000000000e+00
-9.954246447444408119e+00 -5.222589534603618411e+00 1.688716615073156735e+00 4.645974818859319733e-01 -8.855219815596059307e-01 0.000000000000000000e+00
6.968931710729413531e+00 7.881199614082534666e+00 4.437055423525257947e-01 -7.491332837578098536e-01 6.624192955871989197e-01 0.000000000000000000e+00
8.954667834417186612e+00 -3.650339325153101111e+00 -2.848916151888706061e+00 3.774867940029089652e-01 9.260149676724482859e-01 -0.000000000000000000e+00
-5.352388441430091071e+00 -9.268829355122303326e+00 1.692330523781055973e+00 8.659838393599271766e-01 -5.000719847856306410e-01 0.000000000000000000e+00
5.390141676956037742e+00 -8.342680482041428647e+00 -2.283589005726939791e-01 8.399402295958869891e-01 5.426789204551883961e-01 -0.000000000000000000e+00
-3.783709621738009954e+00 1.070664196357432196e+01 2.924424437267176380e+00 -9.428549723278804029e-01 -3.332033930748488082e-01 0.000000000000000000e+00
-1.302969853783702447e+00 -1.197794354906711689e+01 -1.725469486558701915e+00 9.941353698839525688e-01 -1.081428053348761353e-01 0.000000000000000000e+00
-5.043748653700062867e+00 8.398568037274902309e+00 3.070226826040951096e+00 -8.572853507278309637e-01 -5.148415556532512927e-01 0.000000000000000000e+00
4.566498508254420940e+00 -8.879320596744527450e+00 -1.665017806532103517e+00 8.892881781747368208e-01 4.573472817877652918e-01 -0.000000000000000000e+00
-1.024131783848185862e+01 -3.882242683697547658e+00 2.783017340148463248e+00 3.544630495646457491e-01 -9.350700222407580808e-01 0.000000000000000000e+00
9.012117117742995731e+00 -5.200905909596210464e+00 1.570489378920906010e+00 4.998383649242009175e-01 8.661187037294030278e-01 -0.000000000000000000e+00
-3.029902948588565792e+00 1.175858445765514659e+01 2.104457748163223840e+00 -9.683683289638499447e-01 -2.495251078744601669e-01 0.000000000000000000e+00
-8.841018225182644130e+00 -6.045053723863534678e+00 3.346862175519467630e+00 5.644254284512172370e-01 -8.254840614558588419e-01 0.000000000000000000e+00
4.590952000001785827e+00 1.021027329892317681e+01 -1.828186878795661219e+00 -9.120441768138456418e-01 4.100919647346857322e-01 0.000000000000000000e+00
-8.610730116889167007e+00 -9.110844147445018137e+00 4.158582827788501191e-02 7.267724369621660907e-01 -6.868783188251572636e-01 0.000000000000000000e+00
-8.991763148618151291e+00 -2.528938555308074765e+00 -5.888785721438641874e-01 2.707460898173145170e-01 -9.626507959008993032e-01 0.000000000000000000e+00
9.881486496622574833e+00 -2.143017604032249945e+00 -3.246168942197101615e+00 2.119450007544249337e-01 9.772815953732101324e-01 -0.000000000000000000e+00
-1.012126459070540463e+01 -6.944911140929543869e+00 6.003703738764254449e-01 5.657840796200362954e-01 -8.245534398985359115e-01 0.000000000000000000e+00
-1.030278762971039797e+01 5.393334516946483248e+00 3.564547063118375991e+00 -4.637800020379131416e-01 -8.859503991249811916e-01 0.000000000000000000e+00
1.122857594490051270e+01 3.082197457551956177e-01 -3.391666769981384277e+00 -2.743924912521546536e-02 9.996234729174003908e-01 0.000000000000000000e+00
-7.428456134783181675e+00 5.728297673552381397e+00 3.520070476684036720e+00 -6.106547011412339909e-01 -7.918969857084381392e-01 0.000000000000000000e+00
-7.137706291310500717e+00 7.594824453545247600e+00 -2.936252757543003078e+00 -7.286960733463127005e-01 -6.848372307998925601e-01 0.000000000000000000e+00
8.724928736686706543e+00 -4.833411097526550293e+00 3.545833408832550049e+00 4.845875106617343886e-01 8.747427876299771476e-01 -0.000000000000000000e+00
8.615238666534423828e+00 -2.960748791694641113e+00 -3.391666769981384277e+00 3.250071696652307440e-01 9.457115520422683108e-01 -0.000000000000000000e+00
2.842438205041876831e+00 1.215489398412920430e+01 2.424623524293057386e+00 -9.737294769044850806e-01 2.277079397107582004e-01 0.000000000000000000e+00
-1.060511177449460263e+01 -3.537433673162217129e+00 -2.419709834599027332e+00 3.164206811842167344e-01 -9.486189711991407369e-01 0.000000000000000000e+00
7.949270630030042639e+00 -5.959510736781254536e+00 -3.255369584759318258e+00 5.998426646434892318e-01 8.001179773467150813e-01 -0.000000000000000000e+00
-5.804137213620036206e+00 -9.690854564789809444e+00 -3.414445658701527275e+00 8.578978844871232301e-01 -5.138202212763901544e-01 0.000000000000000000e+00
-8.331988433342047529e+00 9.524943993503665496e+00 3.116896541365012929e+00 -7.526682280204903819e-01 -6.583999836941789585e-01 0.000000000000000000e+00
-1.052355095436188925e+01 2.907217862351466842e+00 -1.874497142471603928e+00 -2.662838590602341071e-01 -9.638946552419457303e-01 0.000000000000000000e+00
1.013190835009051582e+01 -1.264631448396833502e+00 2.885130185164224148e-01 1.238556502666947196e-01 9.923002458414562632e-01 -0.000000000000000000e+00
4.135817773812508591e+00 1.189561128845149085e+01 1.479935464281825652e+00 -9.445407946125824461e-01 3.283941036508288280e-01 0.000000000000000000e+00
8.168369690195781629e+00 -4.506378036337972404e+00 -2.932439133991952218e+00 4.830519752379105469e-01 8.755916795052092194e-01 -0.000000000000000000e+00
1.033946478511981582e+01 -4.275103781371758505e-01 2.872240029051774002e+00 4.131213914587875125e-02 9.991462891685038983e-01 -0.000000000000000000e+00
6.228695785836360521e+00 9.873071721171040593e+00 -2.261975430370865681e+00 -8.457567586419233452e-01 5.335686508889998514e-01 0.000000000000000000e+00
