-9.712192950371083100e+00 -5.305580598988508534e-01 -1.476439030339843805e+00 -9.985112199624273099e-01 -5.454671034210237940e-02 0.000000000000000000e+00
2.989905600947018627e+00 8.482408022075706100e+00 -8.295170277853195495e-01 3.324359337447753138e-01 9.431258399361345246e-01 0.000000000000000000e+00
-6.082164106305403273e+00 7.727518618299266784e+00 -1.395732272769112603e+00 -6.184841653380731552e-01 7.857972621650366474e-01 0.000000000000000000e+00
-5.769747978163272784e+00 8.606407583130867067e+00 -2.817656709073389720e+00 -5.568459948225806810e-01 8.306157583684832257e-01 0.000000000000000000e+00
2.865294686938526070e+00 -1.140295796974882947e+01 2.207444779919338629e+00 2.437005854004875571e-01 -9.698505166650474019e-01 0.000000000000000000e+00
7.060994327325294861e+00 -4.279027911888862334e+00 -2.906189425734598597e+00 8.552172968782630891e-01 -5.182695969476086573e-01 0.000000000000000000e+00
-7.907950423420428976e+00 -1.991102381268765154e+00 -1.015409071702005450e+00 -9.697338706167691891e-01 -2.441643302749587907e-01 0.000000000000000000e+00
3.346296791164152573e+00 -9.626582406898837263e+00 3.518317023290568724e+00 3.283385822231779105e-01 -9.445600962478106766e-01 0.000000000000000000e+00
7.246493336915297512e+00 -7.877657324964935981e+00 3.153420368266362850e+00 6.770083895541459951e-01 -7.359752988200770618e-01 0.000000000000000000e+00
9.445071598012720671e+00 4.298118398962878395e+00 -1.894710674181227184e+00 9.101883647126117749e-01 4.141945687014518818e-01 0.000000000000000000e+00
9.073928764358665688e+00 1.668248891674215528e+00 -3.354088671516599618e+00 9.835161664486212763e-01 1.808202155020501578e-01 0.000000000000000000e+00
9.988397319324194612e+00 4.139395480535808858e+00 1.354889300654782414e-02 9.238119657753725011e-01 3.828465121824176642e-01 0.000000000000000000e+00
6.414624926804823879e+00 -7.396565587217743598e+00 3.461754420829076473e+00 6.551794506897681281e-01 -7.554732870154005075e-01 0.000000000000000000e+00
8.342878103256225586e+00 -3.551656723022460938e+00 3.391665041446685791e+00 9.200951886544245228e-01 -3.916948350629334552e-01 0.000000000000000000e+00
-1.162466558438865372e+00 -1.011894102442086307e+01 -2.586024766328795188e+00 -1.141296155104593868e-01 -9.934658679911627654e-01 0.000000000000000000e+00
-7.309766497818321440e+00 4.688886451497729979e+00 -2.321196953312602229e+00 -8.417148952384619909e-01 5.399222491560288217e-01 0.000000000000000000e+00
9.446155631687833676e+00 -4.191583007498939750e+00 5.731823102151091531e-02 9.140523033008025600e-01 -4.055963348336588670e-01 0.000000000000000000e+00
4.718119515017858312e+00 -7.089827691286625821e+00 -1.654762896109151393e+00 5.540145255196731178e-01 -8.325070002788031998e-01 0.000000000000000000e+00
-6.290348713499995803e+00 6.772455587614969019e+00 -3.531625816313257449e+00 -6.805463683531424168e-01 7.327050160339759755e-01 0.000000000000000000e+00
-5.697936383816977646e+00 -8.774147291529894588e+00 3.442190558589157678e+00 -5.446349008873291320e-01 -8.386732526648558173e-01 0.000000000000000000e+00
-5.710819845509349513e+00 9.460821619269191629e+00 -2.369913423074312853e+00 -5.167779553680168503e-01 8.561194687925581803e-01 0.000000000000000000e+00
-9.713721473428627462e+00 4.511945122214827464e+00 8.490434249875781214e-01 -9.069375242761623657e-01 4.212651505403995356e-01 0.000000000000000000e+00
-2.125752711993478705e+00 1.034459996952665151e+01 -1.314389528521354045e+00 -2.012879245035519571e-01 9.795321186408602054e-01 0.000000000000000000e+00
8.605173960453035287e-01 -9.879668483696107728e+00 -3.520707212237259576e+00 8.677130686191406039e-02 -9.962282571306013690e-01 0.000000000000000000e+00
8.206926107406616211e+00 -3.759328246116638184e+00 3.083330988883972168e+00 9.091562537131820942e-01 -4.164551672559871354e-01 0.000000000000000000e+00
6.257506895716012707e+00 7.654003016421711436e+00 6.969608137905021206e-01 6.329433273366511514e-01 7.741981299254144799e-01 0.000000000000000000e+00
-6.876450240783588796e+00 7.656919419943614358e+00 6.919864410941256594e-01 -6.681710495889734425e-01 7.440076938386923633e-01 0.000000000000000000e+00
-9.849577992121936632e+00 2.343698758862773346e+00 3.053659376712620777e+00 -9.728382270909188279e-01 2.314860339428662928e-01 0.000000000000000000e+00
-3.522682825090597714e+00 9.138622622589261724e+00 -3.522948593602086120e+00 -3.596752389343244594e-01 9.330775543852378728e-01 0.000000000000000000e+00
-7.723038839166382452e+00 -2.263436918015703014e+00 -8.324253654664036384e-02 -9.596356670803311006e-01 -2.812461314707954685e-01 0.000000000000000000e+00
-3.185087831403045300e+00 -1.057563528069352010e+01 1.730627095509681412e+00 -2.883774858621657722e-01 -9.575168017574503532e-01 0.000000000000000000e+00
3.695709851994635198e-01 1.192114645810600848e+01 2.273003760779845450e+00 3.098640895861549255e-02 9.995198059367556009e-01 0.000000000000000000e+00
7.924208830215136778e+00 5.481471569493907126e+00 8.969844207739723352e-01 8.224116316703390384e-01 5.688928792781030586e-01 0.000000000000000000e+00
3.584302668970700267e+00 8.134844874530845260e+00 -8.295170277853195495e-01 4.032070530741700964e-01 9.151087762398760761e-01 0.000000000000000000e+00
8.050186802570326705e+00 -4.822251509803249903e+00 2.224491839728476972e+00 8.578622586562315577e-01 -5.138796991254165336e-01 0.000000000000000000e+00
-5.320192114483001333e+00 6.282185082295973722e+00 -1.723434934990289547e+00 -6.462605289880563042e-01 7.631168512567900741e-01 0.000000000000000000e+00
8.701967932957527907e+00 -2.644706285701961423e+00 -2.091363962644916086e+00 9.567876988278537498e-01 -2.907873782881578717e-01 0.000000000000000000e+00
6.385721449863690502e+00 -6.906347253597955316e+00 -3.526486203191767199e+00 6.788901551963530956e-01 -7.342398498974781473e-01 0.000000000000000000e+00
-8.235117718332578107e+00 -4.969036715154980577e+00 1.084026516470620649e+00 -8.562074773926476867e-01 -5.166321279759117369e-01 0.000000000000000000e+00
6.976612482775170765e-01 1.101049452132377482e+01 3.344441489360188591e+00 6.323648110297000469e-02 9.979985708695748858e-01 0.000000000000000000e+00
8.427950731838453891e+00 7.690538653740124353e-01 -1.616917495905076052e+00 9.958625030752602525e-01 9.087285055877429574e-02 0.000000000000000000e+00
-6.162034043043339793e+00 -1.042014160261220290e+01 -1.566716848425981246e+00 -5.090156794723987854e-01 -8.607572468769879581e-01 0.000000000000000000e+00
7.668263557362082317e+00 -6.020709406362638738e+00 -1.314599842941463148e+00 7.865352867454755703e-01 -6.175453365577400211e-01 0.000000000000000000e+00
7.162414677386606421e+00 7.982273020114507567e+00 -2.885343459329727800e+00 6.678496389388698384e-01 7.442962177582399530e-01 0.000000000000000000e+00
6.740922437436047687e+00 6.251018658822959928e+00 -3.010771434230250065e+00 7.332494392632760150e-01 6.799597486764134002e-01 0.000000000000000000e+00
-9.441821814493520648e+00 -4.448573574610072967e+00 -3.575385215521206028e+00 -9.046206306059134672e-01 -4.262176846192089474e-01 0.000000000000000000e+00
4.375601366557432925e+00 9.370823142694026942e+00 2.364227498080176737e+00 4.230879718048454752e-01 9.060886094163542737e-01 0.000000000000000000e+00
9.739215983186378267e+00 -3.486697490538559485e+00 9.039176527293328878e-01 9.414842481738737723e-01 -3.370569839663251077e-01 0.000000000000000000e+00
3.754852193995161347e+00 1.143477198432781350e+01 2.296028802022735515e+00 3.119817651806266467e-01 9.500880897026237060e-01 0.000000000000000000e+00
7.050339570041529669e+00 -6.588130495549933130e+00 -3.198209758942844871e+00 7.306512284552871828e-01 -6.827508933401549296e-01 0.000000000000000000e+00
9.788349806933430486e+00 5.123388423631096700e+00 4.450070556610998818e-01 8.859744461748756406e-01 4.637340625025540009e-01 0.000000000000000000e+00
1.071857707592536713e+01 -6.541375218746507958e-01 -5.653853052153721137e-01 9.981429534650914093e-01 -6.091505928737569325e-02 0.000000000000000000e+00
-8.154424192791012160e+00 -3.100390258278261868e+00 -2.802954684994439227e-01 -9.347185142282684600e-01 -3.553889406817526964e-01 0.000000000000000000e+00
-3.755607483825540882e+00 -1.083777528624058206e+01 -2.021100848773356606e+00 -3.274274057427672968e-01 -9.448763379239429883e-01 0.000000000000000000e+00
-3.270569441482623851e+00 -1.002578762409025614e+01 1.105342134850439528e+00 -3.101312393099187048e-01 -9.506937542679525510e-01 0.000000000000000000e+00
-8.437995653212952973e+00 -1.994869726704747492e+00 6.520831947911155391e-01 -9.731733965398571273e-01 -2.300729020703610184e-01 0.000000000000000000e+00
-1.864028946537326092e+00 1.170527979629817672e+01 3.498972720481446919e-02 -1.572652467113761221e-01 9.875563994915985688e-01 0.000000000000000000e+00
2.023167023363170891e+00 -1.133638789959515947e+01 2.077197833853848152e+00 1.756906638617454497e-01 -9.844454228812377083e-01 0.000000000000000000e+00
1.902703171721552122e+00 -1.106747125536492149e+01 2.519786043218008587e+00 1.694328663187513739e-01 -9.855417311362375532e-01 0.000000000000000000e+00
2.396916686466459723e+00 -8.912001342735502263e+00 -2.771579964121773543e+00 2.597240832789813880e-01 -9.656828674906130505e-01 0.000000000000000000e+00
-1.040100977759493972e+01 -1.736738547991744763e+00 -3.155675271345315114e+00 -9.863441009853530783e-01 -1.646976455551061591e-01 0.000000000000000000e+00
-6.254319300451085972e+00 6.123347299791719323e+00 5.316489245919804318e-01 -7.145489005829874785e-01 6.995854977596690505e-01 0.000000000000000000e+00
3.288561696170996029e+00 -9.948778536784903537e+00 -1.273190575496318866e+00 3.138477355324265083e-01 -9.494733271141261310e-01 0.000000000000000000e+00
9.279864287643569298e+00 -5.725597122211281143e-01 1.285979943143364945e+00 9.981020247919837329e-01 -6.158204369897497116e-02 0.000000000000000000e+00
4.389899037544150673e+00 -7.814544677898308755e+00 4.078123465566310113e-01 4.897710983673352336e-01 -8.718510602184608160e-01 0.000000000000000000e+00
4.293576297859166502e+00 8.765542131138884585e+00 1.930994111726271223e+00 4.398880680957902300e-01 8.980526084517284069e-01 0.000000000000000000e+00
3.879792473976034994e+00 -8.159467339679618902e+00 4.078123465566310113e-01 4.294221127033975294e-01 -9.031038971908772472e-01 0.000000000000000000e+00
-3.412265472636157426e+00 9.280072239765750908e+00 2.080488257025890686e+00 -3.451078938447913469e-01 9.385630195176091206e-01 0.000000000000000000e+00
-9.327234302451989922e-01 9.878351401188533387e+00 -3.430431415463290001e+00 -9.400285791660439871e-02 9.955719274384502437e-01 0.000000000000000000e+00
-3.640127927809279629e-01 1.120639438947712030e+01 -2.843301864939151269e+00 -3.246547404489277810e-02 9.994728575579431284e-01 0.000000000000000000e+00
-1.013874778819146627e+01 -3.122007467097310585e+00 -8.144948270973348947e-01 -9.557155884983857819e-01 -2.942918855510358589e-01 0.000000000000000000e+00
-4.172835325211366353e+00 1.057009959617028372e+01 1.814097000985596342e+00 -3.671990888308735435e-01 9.301423703722867531e-01 0.000000000000000000e+00
7.406124584053337401e+00 -4.755450089371654698e+00 -2.445713004838309779e+00 8.414693224392369997e-01 -5.403048948451711908e-01 0.000000000000000000e+00
8.652231216430664062e+00 -2.727241218090057373e+00 3.391665041446685791e+00 9.537421367260091598e-01 -3.006259081205518435e-01 0.000000000000000000e+00
-7.407856249782092561e+00 -9.292680563783848768e+00 1.714747244040144558e+00 -6.233452981984799468e-01 -7.819466984480771821e-01 0.000000000000000000e+00
-7.765893596808602695e+00 -6.699674532550172756e+00 1.323052708370258568e+00 -7.571717794742026664e-01 -6.532158114803018334e-01 0.000000000000000000e+00
-9.479456232266517901e+00 -3.234411688823404685e+00 -2.822738657738884882e+00 -9.464254206464547403e-01 -3.229224723585850110e-01 0.000000000000000000e+00
1.084102082252502441e+01 -1.683014482259750366e+00 3.391665041446685791e+00 9.881630296898180621e-01 -1.534073881996546318e-01 0.000000000000000000e+00
-9.870611746969403910e+00 2.115383923440614211e+00 -1.207822320765932655e+00 -9.777972823703224847e-01 2.095530352660435192e-01 0.000000000000000000e+00
-1.364816918870925155e+00 -9.759528992321264695e+00 -3.215575066076676425e+00 -1.384968483490789937e-01 -9.903628744038076581e-01 0.000000000000000000e+00
-1.442745346863609557e+00 1.140893853975630989e+01 -4.144764782099821798e-02 -1.254583024647894229e-01 9.920988934288019756e-01 0.000000000000000000e+00
-9.705077905158102425e+00 -4.561459570562496957e+00 -2.186870850479693651e+00 -9.050210827458210483e-01 -4.253667121268211448e-01 0.000000000000000000e+00
1.752698268138708437e+00 -1.048946240933951835e+01 -2.253875700812400851e+00 1.648065132306777980e-01 -9.863259163160758014e-01 0.000000000000000000e+00
-2.446196258678470681e+00 1.099249980127026660e+01 -1.924898297940783820e+00 -2.172197245730324577e-01 9.761227337053552944e-01 0.000000000000000000e+00
8.277204198642309052e+00 -5.359774431559073626e+00 3.263658191059773728e+00 8.393880400129007935e-01 -5.435326285360435605e-01 0.000000000000000000e+00
-9.657562457276238632e+00 5.573942381866849871e+00 1.721570858288808514e+00 -8.660973872224106973e-01 4.998753002964974046e-01 0.000000000000000000e+00
6.863408841027739626e+00 5.593910846070596854e+00 -1.413981723175251060e-01 7.751518183031835818e-01 6.317750062967577573e-01 0.000000000000000000e+00
8.889251854204811565e+00 -2.396528103451216474e+00 4.184418681834671805e-01 9.655265945627586888e-01 -2.603044279147821438e-01 0.000000000000000000e+00
-9.194598795997960039e+00 3.522617369304772428e+00 -3.164353899507819978e+00 -9.338132702234013260e-01 3.577607809062878785e-01 0.000000000000000000e+00
-8.310304693807374576e+00 -3.714127110983473923e+00 3.283762704860212267e+00 -9.129672872172673870e-01 -4.080327590661607107e-01 0.000000000000000000e+00
-8.999306799995762773e+00 3.206654339443322232e+00 -3.472685627489387361e+00 -9.419864678213382136e-01 3.356508519898003806e-01 0.000000000000000000e+00
5.862132566963975666e-01 -1.047375089603807830e+01 3.437455478126393071e+00 5.588229321214969320e-02 -9.984373637366298349e-01 0.000000000000000000e+00
5.398177138998588198e+00 9.445191917658856795e+00 2.996430780384575332e+00 4.962030071560135092e-01 8.682065282462054778e-01 0.000000000000000000e+00
8.649856564907322465e+00 -2.398393032804027492e+00 -2.203474731547770682e-01 9.636426305808567516e-01 -2.671944620069934273e-01 0.000000000000000000e+00
4.289980511224030124e+00 8.324463797402929188e+00 -3.332625601984668506e+00 4.580933232405438038e-01 8.889041046155847781e-01 0.000000000000000000e+00
8.479342533250331826e+00 -2.388927370331904498e+00 -8.608209799529555895e-01 9.625291781678458891e-01 -2.711781355041948394e-01 0.000000000000000000e+00
1.093871688842773438e+01 -2.228392988443374634e+00 3.391665041446685791e+00 9.798741685797398571e-01 -1.996161660541635186e-01 0.000000000000000000e+00
1.056920766830444336e+01 -2.793365955352783203e+00 3.391665041446685791e+00 9.668039384046832607e-01 -2.555193626424296371e-01 0.000000000000000000e+00
9.153939781939083531e+00 -1.197798221491210624e+00 3.234030610246922510e+00 9.915474534057190370e-01 -1.297445476489603733e-01 0.000000000000000000e+00
1.128021502494812012e+01 2.292162477970123291e-01 3.391665041446685791e+00 9.997936086092411578e-01 2.031600807520058533e-02 0.000000000000000000e+00
6.268657950802431600e+00 -7.595254012818692502e+00 -2.520990491752900908e+00 6.365384255723769424e-01 -7.712449888134377263e-01 0.000000000000000000e+00
-7.945921285013849200e+00 2.318711042514335130e+00 -2.206988471724289802e+00 -9.599626243628142097e-01 2.801281132383151573e-01 0.000000000000000000e+00
-3.257368506157958254e+00 9.392687006677139294e+00 2.202126208840038402e+00 -3.276542930970535172e-01 9.447976842769409966e-01 0.000000000000000000e+00
1.083460402488708496e+01 -2.572837710380554199e+00 3.083330988883972168e+00 9.729442369244279964e-01 -2.310400654335577897e-01 0.000000000000000000e+00
8.828925811145893476e+00 1.940429564771751325e+00 -3.149886178751427401e+00 9.766893433050728435e-01 2.146576965177483254e-01 0.000000000000000000e+00
1.072989426836218030e+01 4.093476763580231048e-01 -5.979941712604340820e-01 9.992730742927014020e-01 3.812247360302211535e-02 0.000000000000000000e+00
9.802937467597278243e+00 -2.883351394641130661e+00 8.452169151348636333e-01 9.593619385155234269e-01 -2.821784380985498109e-01 0.000000000000000000e+00
9.180818756125720626e+00 -2.660138437258928512e+00 8.452169151348636333e-01 9.604934531451054802e-01 -2.783025807738606083e-01 0.000000000000000000e+00
-5.677805783090737357e+00 -8.111921488489006293e+00 -5.717378919957911698e-01 -5.734257920821158594e-01 -8.192575059009212790e-01 0.000000000000000000e+00
-7.775983050734888380e+00 -8.161851993057563703e+00 -5.619002271138457960e-01 -6.897849720338741220e-01 -7.240142901602341086e-01 0.000000000000000000e+00
-7.800553309039288674e-01 1.016185230968870101e+01 2.727685689361785570e+00 -7.653793301142094996e-02 9.970666701932922038e-01 0.000000000000000000e+00
-7.766682981696559906e+00 -6.931930730420895692e+00 -9.012706730162924895e-01 -7.460620929283090508e-01 -6.658763800401926725e-01 0.000000000000000000e+00
-7.071334052883482713e+00 5.726913962261225066e+00 2.847943065123035744e+00 -7.771104573580838171e-01 6.293642324319914660e-01 0.000000000000000000e+00
4.305983681472614677e+00 9.050460955260238194e+00 3.193366698693876238e+00 4.296277775714809066e-01 9.030060756932869470e-01 0.000000000000000000e+00
-7.253362950503482232e+00 -5.523257641054267530e+00 -3.520356095222755055e+00 -7.955963539355229708e-01 -6.058270723601759666e-01 0.000000000000000000e+00
-5.233723585176555559e+00 -9.405433600702561847e+00 -3.486730001566606951e+00 -4.862450390929123900e-01 -8.738225002582230561e-01 0.000000000000000000e+00
-5.776208261772048047e+00 -7.451748714795188633e+00 -7.600094484368314918e-01 -6.126447522955993374e-01 -7.903584044499455397e-01 0.000000000000000000e+00
6.667441024545427197e+00 7.396319772368338263e+00 1.054863409464517954e+00 6.695611273059810520e-01 7.427569567501497438e-01 0.000000000000000000e+00
-7.107471813960049900e+00 5.093758348594848329e+00 -1.697892887090516334e-01 -8.128133255746603503e-01 5.825242465067538289e-01 0.000000000000000000e+00
-6.579006974156428100e+00 5.260968695716693233e+00 -9.372690106728892578e-02 -7.809983253154924032e-01 6.245331183007001297e-01 0.000000000000000000e+00
5.619380478870648510e+00 -6.137289264477471917e+00 -2.909822747228632434e+00 6.753021435432287056e-01 -7.375411954093959999e-01 0.000000000000000000e+00
9.757918831525429937e+00 5.104396381837312369e+00 -4.599038449629062053e-01 8.860887313752500161e-01 4.635156525186610588e-01 0.000000000000000000e+00
-9.802524232298086559e+00 2.276387383300733536e+00 2.512102633064502988e-02 -9.740796558323472354e-01 2.262052698182248633e-01 0.000000000000000000e+00
-5.116302197081538772e+00 6.228320851553872828e+00 -2.914962360350122683e+00 -6.347528685697556572e-01 7.727152100499035114e-01 0.000000000000000000e+00
-2.180846287876327949e+00 1.028436739949304624e+01 -3.073605823992837660e-01 -2.074417479841076106e-01 9.782473721882917195e-01 0.000000000000000000e+00
-7.991474525639030269e+00 -2.012456373717797842e+00 2.253909881403019622e+00 -9.697245642241851815e-01 -2.442012889814753618e-01 0.000000000000000000e+00
-2.175419990070659448e+00 -9.856987927283435980e+00 -3.374956662712946365e+00 -2.155120997460361898e-01 -9.765011699240583321e-01 0.000000000000000000e+00
-7.791194368498250533e+00 8.735327926234454310e+00 2.163468141097168118e+00 -6.656256109180110903e-01 7.462858340408347058e-01 0.000000000000000000e+00
9.581247217423214835e+00 9.767125300286071121e-02 2.460032847201940598e+00 9.999480452111555451e-01 1.019347234209046563e-02 0.000000000000000000e+00
3.769202027019805890e+00 -9.832106350645668513e+00 2.749578162810009108e+00 3.579548840946691346e-01 -9.337388826394518171e-01 0.000000000000000000e+00
-6.567396070775692429e+00 -7.618785835939824835e+00 -1.371170706911359449e+00 -6.529098076629065162e-01 -7.574356626523379710e-01 0.000000000000000000e+00
1.850680378523686276e+00 -1.022267657659730133e+01 3.311610887326712049e+00 1.781410819556489833e-01 -9.840049567556408139e-01 0.000000000000000000e+00
8.997807428143334008e+00 1.888049295557145735e+00 -1.590744583645685717e+00 9.786860865124346054e-01 2.053619830128627921e-01 0.000000000000000000e+00
4.349362601227053204e+00 -8.373739321395120783e+00 1.154917006583035199e+00 4.609370952997882687e-01 -8.874328110773196387e-01 0.000000000000000000e+00
9.257564907879618943e+00 -2.643839922802841969e+00 3.505609726049558006e+00 9.615562783546666159e-01 -2.746079451813493444e-01 0.000000000000000000e+00
8.791203260421752930e+00 -2.125710487365722656e+00 3.083330988883972168e+00 9.719889266925422211e-01 -2.350266503762496739e-01 0.000000000000000000e+00
5.574041160586941324e+00 -8.941207496409921518e+00 5.719281116132550746e-01 5.290285285770839341e-01 -8.486040395564736771e-01 0.000000000000000000e+00
-8.934923459439737314e+00 5.025444703526742884e+00 3.187520225770772431e+00 -8.715942829775491507e-01 4.902279121805001028e-01 0.000000000000000000e+00
-7.285535476182273484e+00 -5.427901462764831209e+00 3.131022968832438913e+00 -8.019111315121968397e-01 -5.974433338458369214e-01 0.000000000000000000e+00
9.075111759258236432e+00 -2.186857520189639636e+00 -8.645076004123201929e-02 9.721722182617585917e-01 -2.342673217501997363e-01 0.000000000000000000e+00
-9.714282381070841410e+00 -3.280628178148751850e+00 2.743909566565693403e+00 -9.474314510009765877e-01 -3.199588186848174587e-01 0.000000000000000000e+00
-4.835945916022643232e+00 -1.038515839010689668e+01 -2.440236564047790324e+00 -4.221354447148204514e-01 -9.065327717823667975e-01 0.000000000000000000e+00
6.774985443909257832e+00 7.927052404391522700e+00 -2.977353034887781913e+00 6.497054691919591507e-01 7.601860320356170764e-01 0.000000000000000000e+00
7.845182091137435698e+00 -5.891688368730566339e+00 2.434785933686924420e+00 7.996181438141117814e-01 -6.005088043345195858e-01 0.000000000000000000e+00
-8.314847668312118856e+00 -3.538771340866568416e+00 -3.367376361667923312e+00 -9.201331724090843212e-01 -3.916055988266695653e-01 0.000000000000000000e+00
-9.546829884499683061e+00 1.614171064640494535e+00 -1.102946865278068733e+00 -9.860054498457422323e-01 1.667130854926971162e-01 0.000000000000000000e+00
-8.258192263942811806e+00 -1.072707661965670356e+00 -1.047348280828972467e+00 -9.916687733897072698e-01 -1.288139894722368228e-01 0.000000000000000000e+00
-6.044727833471907452e+00 7.007683734933983999e+00 -2.451754295445773835e+00 -6.531640621619524412e-01 7.572164207808076419e-01 0.000000000000000000e+00
-5.762762793028086250e+00 5.985569070712971396e+00 -3.356682688988503305e+00 -6.935718346386521294e-01 7.203874722647350959e-01 0.000000000000000000e+00
8.377639081736241167e+00 3.200208318250651551e+00 1.660245267254463641e+00 9.341636264188837302e-01 3.568449510304443906e-01 0.000000000000000000e+00
-3.153745652216127127e+00 -1.013291883222691681e+01 -4.483475606107493183e-01 -2.971766938966722282e-01 -9.548225031934696183e-01 0.000000000000000000e+00
7.542825157428759475e+00 6.721546832234400526e+00 -1.466754086801616230e+00 7.465823930989430313e-01 6.652929657787277629e-01 0.000000000000000000e+00
-7.711949929604410059e+00 1.164103862772876974e-01 4.559732047028444146e-01 -9.998860928846210472e-01 1.509308636187649266e-02 0.000000000000000000e+00
8.792668166712987343e+00 3.754787418373833674e+00 -7.013670086504180112e-01 9.196554613983315418e-01 3.927261543623263851e-01 0.000000000000000000e+00
-6.474908925193689768e+00 7.133909598211124248e+00 -3.271855872103395235e+00 -6.720779377298984336e-01 7.404804154174010611e-01 0.000000000000000000e+00
-4.872607733335527769e+00 1.149241454570498888e+01 3.112665151042536493e+00 -3.903487375817578653e-01 9.206670750430515637e-01 0.000000000000000000e+00
8.629540761953176542e+00 -4.034062795372236998e+00 2.861989936636728959e+00 9.059036052363891312e-01 -4.234839524937311639e-01 0.000000000000000000e+00
1.642614892237712176e+00 1.052745447944876744e+01 -1.131807277491936548e+00 1.541661687198616904e-01 9.880449344145432189e-01 0.000000000000000000e+00
1.102690073034508345e+01 -5.481181495404543469e-01 7.405333857471859682e-01 9.987668737236731209e-01 -4.964606683555337907e-02 0.000000000000000000e+00
6.541237344955264987e+00 -6.847848833946240887e+00 2.671246534994339505e+00 6.907328695963792509e-01 -7.231100212686526474e-01 0.000000000000000000e+00
-1.732819580143011962e+00 1.177417691869096394e+01 -8.149218350042586323e-01 -1.456028013607525706e-01 9.893431276538496855e-01 0.000000000000000000e+00
-8.161163350141285022e+00 8.814927482281477156e-01 -3.401641668933581997e+00 -9.942173945554453329e-01 1.073860901764374237e-01 0.000000000000000000e+00
9.367892376846862490e+00 -4.394910912081220644e+00 1.528048928254136962e+00 9.053210490371991215e-01 -4.247279107501478190e-01 0.000000000000000000e+00
2.015841840422488929e+00 -9.048402918762532110e+00 -3.559645551296867438e+00 2.174532088642500693e-01 -9.760707463881094226e-01 0.000000000000000000e+00
5.608085290662125466e+00 9.589441070504502562e+00 -5.910154120431085900e-01 5.048274385448315860e-01 8.632202831793657216e-01 0.000000000000000000e+00
-1.027727326647496398e+01 2.043851275227824615e+00 1.820323822112858814e+00 -9.807930490475065266e-01 1.950512623391491562e-01 0.000000000000000000e+00
-6.656351090680764138e+00 6.826169505566770823e+00 -3.081691221743473097e+00 -6.981450764922219054e-01 7.159563200151733975e-01 0.000000000000000000e+00
5.420461815380570592e+00 -7.632043201447896053e+00 -6.134614902245813517e-02 5.790434428711435100e-01 -8.152966891064458155e-01 0.000000000000000000e+00
4.418059051752710076e+00 -7.946605478563294689e+00 -2.537761841458034073e+00 4.859184253684601940e-01 -8.740041669737255159e-01 0.000000000000000000e+00
8.564854383468627930e+00 3.610764741897583008e+00 3.391665041446685791e+00 9.214617372136392204e-01 3.884691324303927717e-01 0.000000000000000000e+00
-7.355296114369486382e+00 9.087919330173987120e+00 5.276459742981723933e-01 -6.291160186336790527e-01 7.773114144913274570e-01 0.000000000000000000e+00
-7.086609107479585390e+00 4.257379628910106462e+00 -2.631448176995523913e-01 -8.572038626382882942e-01 5.149772207369938126e-01 0.000000000000000000e+00
-7.200213916794175883e-01 1.078640099542441888e+01 -2.065189190294590027e+00 -6.660447291899029842e-02 9.977794566872899562e-01 0.000000000000000000e+00
8.272327485328299090e+00 -5.921311397381858299e+00 2.720019191623253896e+00 8.131516301940550084e-01 -5.820519103248013026e-01 0.000000000000000000e+00
-3.674395937395820599e+00 1.090378856418450937e+01 2.898021100003225214e+00 -3.193391345272637016e-01 9.476404999573297960e-01 0.000000000000000000e+00
-7.697030950390196580e+00 6.042988810436273894e+00 3.464611170248462990e+00 -7.865505349866410700e-01 6.175259151746012032e-01 0.000000000000000000e+00
-1.066106748580932617e+01 1.166818246245384216e+00 6.166604924048897374e-01 -9.940639898989622747e-01 1.087969851887251455e-01 0.000000000000000000e+00
3.118433561152489375e+00 -1.026866400660382794e+01 3.102794169431599247e+00 2.905806197851083517e-01 -9.568505125699116043e-01 0.000000000000000000e+00
-7.683752163498999366e+00 -6.041405312703126640e+00 -3.020783126679110087e+00 -7.861109650545777816e-01 -6.180853910431473031e-01 0.000000000000000000e+00
7.975366579957364088e+00 8.426217122610825783e+00 1.912580861157084255e+00 6.874100102715512417e-01 7.262695627509567764e-01 0.000000000000000000e+00
-1.674846564813070371e+00 1.148587839924136844e+01 -1.638340806249247716e+00 -1.442919305664834007e-01 9.895351629797685122e-01 0.000000000000000000e+00
1.064568448066711426e+01 4.578932404518127441e+00 3.391665041446685791e+00 9.186288465565667360e-01 3.951215537959831825e-01 0.000000000000000000e+00
-3.982807051950219890e+00 8.011622797064756440e+00 -2.728264819583301026e+00 -4.451554695225644065e-01 8.954532974723723449e-01 0.000000000000000000e+00
-2.700139676123931132e+00 -9.846447471807987739e+00 1.939065319330304904e+00 -2.644613387884701128e-01 -9.643962879886101014e-01 0.000000000000000000e+00
9.051187893951100349e+00 -1.829284537304758373e+00 -3.378559721764889723e+00 9.801820053602195992e-01 -1.980990569589325401e-01 0.000000000000000000e+00
-5.563552080847712134e+00 -1.088924915208427535e+01 7.609333345993716247e-01 -4.549772154294831616e-01 -8.905030788492723781e-01 0.000000000000000000e+00
-7.185361465312816165e+00 6.338176102692438363e+00 2.442484249754098613e+00 -7.499335718375528259e-01 6.615131425988223235e-01 0.000000000000000000e+00
8.750404714417360452e+00 -3.850953626063113866e+00 -4.928966862399017934e-01 9.152851256508044431e-01 -4.028065773574096009e-01 0.000000000000000000e+00
-9.763787244678255206e+00 -2.547024887061709819e+00 1.934968152993036927e+00 -9.676184837889801882e-01 -2.524172534315258232e-01 0.000000000000000000e+00
9.067715817689286695e+00 6.141625744920760965e+00 -4.608023380364651977e-01 8.279619532486753863e-01 5.607842757893968244e-01 0.000000000000000000e+00
1.589449986581479735e+00 -1.025256041154922215e+01 2.564695836135794327e+00 1.531994854464474032e-01 -9.881952831596314546e-01 0.000000000000000000e+00
9.013878583908081055e+00 1.896978259086608887e+00 3.391665041446685791e+00 9.785646728898710345e-01 2.059397508300422619e-01 0.000000000000000000e+00
1.331802791559540067e+00 -9.427154301436917905e+00 -3.072033147216377991e+00 1.398840331324155417e-01 -9.901678934779742924e-01 0.000000000000000000e+00
-8.473049212299681443e+00 6.278683576480890594e+00 3.464611170248462990e+00 -8.034505601660135721e-01 5.953714784644282831e-01 0.000000000000000000e+00
8.612155914306640625e+00 3.335567474365234375e+00 3.083330988883972168e+00 9.325013865692882709e-01 3.611663938496424420e-01 0.000000000000000000e+00
-4.470127436178554348e+00 1.111936954241874176e+01 1.623732421768582679e+00 -3.729999613384654134e-01 9.278313579748763695e-01 0.000000000000000000e+00
-6.442454482794962800e+00 3.876789268769203822e+00 -3.174600620365214176e+00 -8.568282087959954163e-01 5.156019982616881769e-01 0.000000000000000000e+00
1.034119463615433432e+01 -6.514751127475404413e-01 -1.746513670751277836e+00 9.980215099128609824e-01 -6.287341052665282315e-02 0.000000000000000000e+00
-6.702214097748964150e+00 4.824933065943982413e+00 7.513382827686709842e-01 -8.115722985107775012e-01 5.842520040957782657e-01 0.000000000000000000e+00
-9.022835671363145238e+00 2.266747387754190157e+00 3.190655283082206140e+00 -9.698626755868664517e-01 2.436521916656702036e-01 0.000000000000000000e+00
-7.027923557483798156e+00 -4.514219824897105937e+00 -2.897531421204492030e+00 -8.413815983131817111e-01 -5.404414917638685756e-01 0.000000000000000000e+00
-9.594958711396820661e+00 -3.757896811887050603e+00 1.979504592583241740e+00 -9.311324912959114686e-01 -3.646810711472002753e-01 0.000000000000000000e+00
9.707255709069825045e+00 3.423345673525719057e+00 3.352245888565664522e+00 9.430739875919551540e-01 3.325830030645116064e-01 0.000000000000000000e+00
-1.013098363130819379e+01 -1.543581487642380790e+00 -3.019582675426875973e+00 -9.885910994017469422e-01 -1.506241620180684970e-01 0.000000000000000000e+00
8.427890611913191776e+00 -5.781982321374075973e+00 -1.631426006735715362e+00 8.245984383152513697e-01 -5.657184949496072424e-01 0.000000000000000000e+00
9.267013198753128123e+00 3.867075901170230701e+00 -2.622592637472983768e+00 9.228710035768183939e-01 3.851092192574930295e-01 0.000000000000000000e+00
-4.407729323653367004e+00 9.930159116121718199e+00 -2.042311211560926765e+00 -4.057022547675944169e-01 9.140052956501345527e-01 0.000000000000000000e+00
-4.222245962427492394e+00 1.058997865766951030e+01 6.656557689035257352e-01 -3.703510677436667176e-01 9.288918594869511880e-01 0.000000000000000000e+00
-4.064007830692108136e+00 -1.172964398864066027e+01 1.748626401500849248e+00 -3.273800565822302944e-01 -9.448927444700885303e-01 0.000000000000000000e+00
6.585455587258850940e+00 4.665078174130771416e+00 -3.524863408333503312e+00 8.160022440201637473e-01 5.780487330269454826e-01 0.000000000000000000e+00
-2.898627183417686659e+00 1.161486406988633746e+01 3.580138797992917787e-01 -2.421355164483726952e-01 9.702424396377845595e-01 0.000000000000000000e+00
5.181446550186448452e-02 1.013758059549332202e+01 -3.190343371582963883e+00 5.111060596389330017e-03 9.999869384444878273e-01 0.000000000000000000e+00
1.827960741067098382e+00 1.005279893841240479e+01 2.870005093631231130e+00 1.789024072738070459e-01 9.838668246625846825e-01 0.000000000000000000e+00
2.100454377478282453e-01 -1.087994921564328443e+01 -3.467583981776614532e+00 1.930214023530138143e-02 -9.998136963366408558e-01 0.000000000000000000e+00
1.126928973197937012e+01 1.333385497331619263e+00 3.391665041446685791e+00 9.930728055282920241e-01 1.175006507223122776e-01 0.000000000000000000e+00
1.378995623637235379e+00 -9.907758913859971983e+00 3.217585473510965244e+00 1.378545494322411247e-01 -9.904524840702020327e-01 0.000000000000000000e+00
2.426037685844995906e+00 -9.732478228424437106e+00 -2.712799806314193596e+00 2.418710521435189498e-01 -9.703084015584875210e-01 0.000000000000000000e+00
2.595953200494348856e+00 -1.068906154618531446e+01 -1.697218303329284694e+00 2.360006120799646723e-01 -9.717529064005325790e-01 0.000000000000000000e+00
1.085792948251516066e+01 -1.709933006292355229e+00 1.778774520740729059e+00 9.878256312350096602e-01 -1.555651705079090230e-01 0.000000000000000000e+00
9.906655622333882860e+00 -8.902687953990747749e-01 3.162809696703441364e+00 9.959863694942163725e-01 -8.950503774498012877e-02 0.000000000000000000e+00
8.153871920366917436e+00 3.780736517923350526e+00 1.660245267254463641e+00 9.072209010430976051e-01 4.206545336859571216e-01 0.000000000000000000e+00
9.307552337646484375e+00 1.343581750988960266e+00 3.391665041446685791e+00 9.897410287794190520e-01 1.428730063750918156e-01 0.000000000000000000e+00
-8.331255125432956987e+00 -6.718798363634943094e+00 -2.892083191810969289e+00 -7.784110201000313811e-01 -6.277549552069090488e-01 0.000000000000000000e+00
8.233813301744115076e-01 -1.038812633488577752e+01 -3.392773900666271825e+00 7.901396360107208749e-02 -9.968735093059943875e-01 0.000000000000000000e+00
1.094875264167785645e+01 3.515153944492340088e+00 3.391665041446685791e+00 9.521320746969097470e-01 3.056869515261620984e-01 0.000000000000000000e+00
8.630814451440613766e+00 -6.113512063283808473e+00 2.593719397166716512e+00 8.160236563657772280e-01 -5.780185051115817041e-01 0.000000000000000000e+00
2.012567562321688097e+00 -1.042509845975260063e+01 2.274589429641213023e+00 1.895504117213419604e-01 -9.818709902101547815e-01 0.000000000000000000e+00
-7.787710519758425320e+00 5.554383284628020334e+00 2.769180414036612081e+00 -8.141420401411357810e-01 5.806657717438055144e-01 0.000000000000000000e+00
9.793182890229963355e-01 -9.695754986579256496e+00 -3.459934812153322992e-02 1.004935354132107939e-01 -9.949377112865679385e-01 0.000000000000000000e+00
1.072861242294311523e+01 4.210087597370147705e+00 3.083330988883972168e+00 9.308909360445004610e-01 3.652972285553146015e-01 0.000000000000000000e+00
-8.570935230534841409e+00 5.839739353924648491e+00 3.284744942313726046e+00 -8.264104075994349596e-01 5.630682358394367704e-01 0.000000000000000000e+00
-6.572589184523783601e+00 4.131208833970009486e+00 -3.482932348346781559e+00 -8.466442646575107478e-01 5.321592704468679491e-01 0.000000000000000000e+00
4.983196814587632417e+00 7.785205417671468453e+00 6.358063881108215742e-01 5.391047597604882169e-01 8.422387179437824667e-01 0.000000000000000000e+00
-7.741549842490174527e+00 4.407321134855784805e+00 3.473219276242017983e+00 -8.690361221837432648e-01 4.947486415745294130e-01 0.000000000000000000e+00
1.115790510177612305e+01 2.430948317050933838e+00 3.391665041446685791e+00 9.770796168784755542e-01 2.128741935524627038e-01 0.000000000000000000e+00
9.026831056677741216e+00 2.006443173379872658e+00 -1.948315263290855137e-01 9.761760502456860999e-01 2.169799966050597884e-01 0.000000000000000000e+00
5.911034395527563490e+00 5.149584635838693636e+00 -3.228899771683892084e+00 7.540017141957713331e-01 6.568724495591502510e-01 0.000000000000000000e+00
5.927677516948956615e+00 -6.667588212765435784e+00 -3.526486203191767199e+00 6.644222212264508931e-01 -7.473574191379311893e-01 0.000000000000000000e+00
5.140627804030795112e+00 -6.884043060409926973e+00 -3.560086530395293103e+00 5.983297590546964306e-01 -8.012499606424632326e-01 0.000000000000000000e+00
-7.933203806925784640e+00 -5.399518889089418572e+00 -2.986605668902159838e+00 -8.266870467257900756e-01 -5.626620004725675361e-01 0.000000000000000000e+00
-7.744274803459309631e+00 -1.653330169461800558e+00 -1.586345189077591034e+00 -9.779614351833412211e-01 -2.087856108407368239e-01 0.000000000000000000e+00
7.384911047883389479e+00 8.289202733572739845e+00 3.454250468319560063e+00 6.652052876866150211e-01 7.466605153841791020e-01 0.000000000000000000e+00
-9.723222409678346168e+00 -5.682158074176150819e+00 -3.137683313156868437e+00 -8.633814068861387359e-01 -5.045518271132428678e-01 0.000000000000000000e+00
1.122204446792602539e+01 1.790020525455474854e+00 3.083330988883972168e+00 9.875161145432777010e-01 1.575180101364537788e-01 0.000000000000000000e+00
1.091485333454990680e+01 2.073551768812961882e+00 3.162464606304889791e+00 9.824289139925890257e-01 1.866371585492618279e-01 0.000000000000000000e+00
-8.510939359134910287e-01 -1.111254627648043147e+01 3.140734939985979857e+00 -7.636491819682732218e-02 -9.970799362482386519e-01 0.000000000000000000e+00
-8.429650937633665464e+00 1.256234422130384720e+00 2.075582332081316483e+00 -9.890772752962793124e-01 1.473979087113789499e-01 0.000000000000000000e+00
-1.517607212582923193e+00 -1.014440546371045215e+01 2.305792839877932821e+00 -1.479539451686812113e-01 -9.889942518078772560e-01 0.000000000000000000e+00
-4.668103374213400159e+00 8.656541946158814227e+00 -3.023378031264117638e+00 -4.746427080533056619e-01 8.801785612543767678e-01 0.000000000000000000e+00
-7.298820707810396158e+00 -7.185341753218013494e+00 -2.566328442211261773e+00 -7.126248741889631422e-01 -7.015452862696496261e-01 0.000000000000000000e+00
-2.769300467542808342e+00 1.137580714683823935e+01 1.991526758566347866e+00 -2.365299708316729865e-01 9.716241932446763041e-01 0.000000000000000000e+00
-8.133699704631670357e+00 -7.764109874368914532e+00 -2.380837663951096417e+00 -7.233500454770598331e-01 -6.904815071443516361e-01 0.000000000000000000e+00
9.586035387198201363e+00 -4.031747729932302349e+00 1.527671568448163875e+00 9.217892959042330858e-01 -3.876912353360318364e-01 0.000000000000000000e+00
3.915952268485172638e+00 -8.845589973022175201e+00 3.201472960758430020e+00 4.048068520831963890e-01 -9.144022159348113021e-01 0.000000000000000000e+00
-1.507931396646575495e+00 -1.144626003061240382e+01 -3.186176956380570857e+00 -1.306115602271528953e-01 -9.914336187234266129e-01 0.000000000000000000e+00
6.324415546699107438e+00 5.887603563300715770e+00 -1.368345415231700279e+00 7.319312242480867647e-01 6.813785166636067148e-01 0.000000000000000000e+00
2.118766517438712249e+00 -9.872633555529077398e+00 3.485690455262432152e+00 2.098322846051242918e-01 -9.777373943638415499e-01 0.000000000000000000e+00
-6.136070731614595708e+00 -6.623143430527986375e+00 -2.210963716164078718e+00 -6.796185374986530858e-01 -7.335657049564078269e-01 0.000000000000000000e+00
8.610296327375152714e+00 6.248525809916827711e+00 -5.668857895676130410e-01 8.093396217571874329e-01 5.873409373216994522e-01 0.000000000000000000e+00
6.561767223374069147e+00 7.992547798473301768e+00 2.899447892377700065e+00 6.345350031258629731e-01 7.728941258723998065e-01 0.000000000000000000e+00
-4.444582363756533816e+00 1.056949170834167795e+01 -9.674669289334141276e-01 -3.876324790009622046e-01 9.218140057644862440e-01 0.000000000000000000e+00
-2.299729866865524830e+00 -1.176927276949347068e+01 -7.367415384663545952e-01 -1.917743539710225764e-01 -9.814390440363564005e-01 0.000000000000000000e+00
-3.425133087794508313e+00 1.062855894571891824e+01 -2.316338299449081539e+00 -3.067242068636544805e-01 9.517984350291096574e-01 0.000000000000000000e+00
-8.275157197250099017e+00 4.340690572631912270e-01 2.230474204523700266e+00 -9.986270963113006438e-01 5.238246379142754566e-02 0.000000000000000000e+00
-2.654673032877063132e+00 -9.839669718497811246e+00 8.032074844917659329e-01 -2.604794830567050967e-01 -9.654793829525889493e-01 0.000000000000000000e+00
-1.008504123359401916e+01 -1.169894289411755328e-01 -2.907766594573134356e+00 -9.999327233959078853e-01 -1.159951214676321375e-02 0.000000000000000000e+00
7.203486211731764399e+00 4.294189872805082686e+00 -2.476077459759570054e+00 8.589572608686000255e-01 5.120472868799440525e-01 0.000000000000000000e+00
8.143931700017439823e+00 -6.010716814629691207e+00 -1.939757764519605132e+00 8.045873151790196021e-01 -5.938343643247813164e-01 0.000000000000000000e+00
3.715871411963148407e+00 1.145215412925579201e+01 2.912696579322616497e+00 3.086293924072826544e-01 9.511823684984449523e-01 0.000000000000000000e+00
8.955375432968139648e+00 3.140852510929107666e+00 3.391665041446685791e+00 9.436455499834517369e-01 3.309578160376771550e-01 0.000000000000000000e+00
-1.376387474872792227e+00 1.068998986317432198e+01 2.963965956464554630e+00 -1.277006501350941570e-01 9.918127564994685397e-01 0.000000000000000000e+00
-3.207831399218705748e+00 1.141169916271633333e+01 -5.245558696979922830e-01 -2.706119723759577433e-01 9.626885064270758186e-01 0.000000000000000000e+00
1.059510254872227009e+01 2.839561546597309416e+00 3.470798658867603415e+00 9.659118679592159085e-01 2.588711326809889912e-01 0.000000000000000000e+00
-8.113574314915037888e+00 6.485390815631891570e+00 3.464611170248462990e+00 -7.811255663932841209e-01 6.243739660866485242e-01 0.000000000000000000e+00
2.843585153716793990e+00 8.494952067514901728e+00 -3.163097374894528802e+00 3.174265223916926115e-01 9.482828707101674803e-01 0.000000000000000000e+00
9.473419128771787268e-01 -1.167734023525771647e+01 1.898308986825517630e+00 8.086085764449410518e-02 -9.967253993457761974e-01 0.000000000000000000e+00
-6.298650179916172931e+00 4.726932048905092998e+00 -3.546267305289443339e+00 -7.998204969878418558e-01 6.002392627928647695e-01 0.000000000000000000e+00
-9.827206156597927400e-01 1.111336160358218805e+01 -1.688548271963028480e+00 -8.808323988832510165e-02 9.961131174975941249e-01 0.000000000000000000e+00
8.670236587524414062e+00 7.965714097023010254e+00 3.391665041446685791e+00 7.363922739738231193e-01 6.765548158365749520e-01 0.000000000000000000e+00
-6.213110426392158381e+00 5.072353998826896415e+00 -1.799896723703150903e+00 -7.746351123910134584e-01 6.324084460623226045e-01 0.000000000000000000e+00
-3.728887278194131127e+00 1.195614824203638449e+01 5.581951280319819020e-01 -2.977359960410086437e-01 9.546482476082320812e-01 0.000000000000000000e+00
3.947914179568766002e+00 9.295817471552441091e+00 1.945858063533105309e+00 3.909051080802670164e-01 9.204309840921016672e-01 0.000000000000000000e+00
-8.288688857086746964e+00 4.252867228062791050e+00 9.983383416614632910e-01 -8.897190470970082199e-01 4.565085072950905709e-01 0.000000000000000000e+00
1.818807912208150857e+00 1.013415143498221482e+01 6.345578219141166931e-01 1.766506690546152669e-01 9.842736109042834469e-01 0.000000000000000000e+00
-4.124139237301229777e+00 -9.933668885623173850e+00 -9.368698015177668870e-01 -3.834355272349728172e-01 -9.235676458462792615e-01 0.000000000000000000e+00
-3.113787690178554612e+00 8.451267128526026795e+00 -1.911652928444128818e+00 -3.457212895854255841e-01 9.383372474368637528e-01 0.000000000000000000e+00
-7.409878227342865387e+00 2.628478643764052602e+00 -2.635487677840917531e+00 -9.424611308149745126e-01 3.343157443240739046e-01 0.000000000000000000e+00
7.201088089734886566e+00 -5.297511153430606967e+00 -1.693457327266382428e+00 8.055125366609575677e-01 -5.925787317159043610e-01 0.000000000000000000e+00
-8.551154957970192427e+00 4.698041597893169552e+00 -1.196438747706339401e+00 -8.764362658479079027e-01 4.815178832676675902e-01 0.000000000000000000e+00
5.534784587713646786e+00 8.676998347687291613e+00 -5.490166800868075958e-01 5.377782679406397648e-01 8.430863149943578216e-01 0.000000000000000000e+00
-5.324046427313557039e+00 6.722899879635154008e+00 -1.954891097931535260e+00 -6.208284300571644820e-01 7.839464652849430504e-01 0.000000000000000000e+00
9.436528142554641008e+00 1.262970428148133539e+00 -1.148405181589347235e+00 9.911621891861378542e-01 1.326556245612775242e-01 0.000000000000000000e+00
-3.713005259174786410e+00 -9.069629889663335831e+00 3.203857997015057357e+00 -3.788690255546119379e-01 -9.254503020018411963e-01 0.000000000000000000e+00
-4.684474601883374056e+00 -1.001442740553247646e+01 3.512192049577770980e+00 -4.237078880079045984e-01 -9.057988880760901029e-01 0.000000000000000000e+00
-4.728565685879457803e+00 -8.276554945476465974e+00 -3.216051468128828361e+00 -4.960682122486917422e-01 -8.682835532223256436e-01 0.000000000000000000e+00
8.090295698900852983e+00 4.049369227903361512e+00 1.968578991991631000e+00 8.942404733306589248e-01 4.475868361082117608e-01 0.000000000000000000e+00
-2.912741920354347869e+00 1.074396451513639228e+01 -1.364923999798588250e+00 -2.616597023463864691e-01 9.651601940444913819e-01 0.000000000000000000e+00
-9.307846380236853179e+00 -2.496254218018799875e+00 1.183771377533781477e+00 -9.658680988790832034e-01 -2.590343907046043781e-01 0.000000000000000000e+00
8.365173993115607942e+00 4.169265097095460781e+00 2.847591420933966333e+00 8.949965924050505839e-01 4.460729756254551148e-01 0.000000000000000000e+00
9.288767195880494043e+00 6.305517738180635767e+00 2.043846123834807127e+00 8.273753712795167692e-01 5.616493523543684141e-01 0.000000000000000000e+00
2.558642001776385122e+00 9.300673051142709369e+00 -3.447050663740420351e+00 2.652487081937455193e-01 9.641800261370016001e-01 0.000000000000000000e+00
7.830370485869696751e+00 2.653627444718908990e+00 -2.002090471296788188e+00 9.470929213099854582e-01 3.209594965171109759e-01 0.000000000000000000e+00
6.607324376147737155e+00 7.878247000791692045e+00 -2.526544038265834402e+00 6.425986949900674983e-01 7.662029216839767454e-01 0.000000000000000000e+00
3.634450316429138184e+00 1.213203716278076172e+01 3.391665041446685791e+00 2.869740139293416870e-01 9.579383671872017114e-01 0.000000000000000000e+00
-2.965763192614327970e+00 -1.100486765170447789e+01 3.359701148793527992e+00 -2.602118731217582526e-01 -9.655515424287125503e-01 0.000000000000000000e+00
-9.088974654455949320e+00 -6.574712288725593545e+00 1.976269547192241793e+00 -8.102367150904027371e-01 -5.861027772665076130e-01 0.000000000000000000e+00
7.496905283602501413e+00 -5.133473803562740301e+00 5.998772128546864257e-01 8.251014094083857220e-01 -5.649846583689643875e-01 0.000000000000000000e+00
1.099398382922480710e+00 8.876343628256032403e+00 -1.907307105452623386e+00 1.229178948613934841e-01 9.924168434296364305e-01 0.000000000000000000e+00
-1.911975817128622968e+00 1.244761143381096602e+01 3.109797850749172365e+00 -1.518212658401396353e-01 9.884079639696846664e-01 0.000000000000000000e+00
-3.891273590015878803e+00 8.333686565166983584e+00 -3.277043828502794298e+00 -4.230836498722056471e-01 9.060906274820487161e-01 0.000000000000000000e+00
-5.494337996714686589e+00 6.226223249523673786e+00 -2.480068106516712056e+00 -6.616630478449709862e-01 7.498013144270312402e-01 0.000000000000000000e+00
-7.106743727737217853e+00 5.502459764588076396e+00 -3.546267305289443339e+00 -7.906986840425094254e-01 6.122055137398257907e-01 0.000000000000000000e+00
